-71.5954180278105,-71.50860268545763,-71.40940633891877,-71.2820319746875,-71.10632961856832,-70.8950312340272,-70.65116450509424,-70.38620499606736,-70.11521071958992,-69.8726631186477,-69.64510060674661,-69.43875436908455,-69.23355796712742,-69.02432071202833,-68.8044925754034,-68.56678132415465,-68.31762798979719,-68.0697807138865,-67.83408725409048,-67.60070186268474,-67.36572397749129,-67.12889628917611,-66.88688184907467,-66.62998363427018,-66.37174774051837,-66.12094480882197,-65.89373675757702,-65.69744158439778,-65.52325921101216,-65.37363563173714,-65.23523016616218,-65.10253664229865,-64.97132500695373,-64.84091435439066,-64.70983362401711,-64.58773787512553,-64.47401550156128,-64.36023495918855,-64.22821768429219,-64.08510242852611,-63.92821397032416,-63.753890415899725,-63.5630794862912,-63.35539684575579,-63.126325588788966,-62.8784676674771,-62.61908131503863,-62.34513628498488,-62.07764200397209,-61.84431218708545,-61.648592279277146,-61.48992929586079,-61.36803803380917,-61.2620427169839,-61.15297243903247,-61.040218385472684,-60.90985376148898,-60.735859979608136,-60.49030599410596,-60.26616933928227,-60.17662087440931,-60.602306608304325,-60.843468680786835,-60.87946497546343,-60.7906087797494,-60.6582282760849,-60.533271894539354,-60.38247010654817,-60.22564394256825,-60.066388149551074,-59.90712958826805,-59.75827997896946,-59.619138470816054,-59.49528832330779,-59.38443139116967,-59.2824347554891,-59.1717765118644,-59.04376993602281,-58.90602473560992,-58.76216058854582,-58.611734582592874,-58.454533230191124,-58.29475508000652,-58.12914701955967,-57.96566452026218,-57.7935418536661,-57.61293073668445,-57.40509488765355,-57.20268806156269,-57.00359545335882,-56.81209019483269,-56.6208688908848,-56.4219818765045,-56.207296318459775,-55.9701761800402,-55.7057798626014,-55.415200189943285,-55.10762427348149,-54.795381537158924,-54.48790497144347,-54.19128581092842,-53.91623122872201,-53.66250154307501,-53.41643750528546,-53.17150944583479,-52.9311291634239,-52.684174602732234,-52.42019876297012,-52.15784095566281,-51.90069490687213,-51.65604184296133,-51.419999599420876,-51.19380852077602,-50.98001836141204,-50.75977417673716,-50.52999080116227,-50.274960458416636,-50.001319021284466,-49.693745731539266,-49.3750376934056,-49.063827164286245,-48.79116025366076,-48.569579082800445,-48.41523147089454,-48.13322474037358,-47.71900846269332,-46.59995423716788,-46.124732661327684,-46.10477153392754,-46.04405019303519,-45.234786474895806,-44.3062893897184,-43.75058158078609,-44.043336787307666,-44.60930821659608,-45.31011885961528,-45.71291285603928,-46.04645984133178,-46.358238596251674,-46.68619725936048,-47.01554563673065,-47.336428591344884,-47.64870878821692,-47.94249527927015,-48.23638527413267,-48.53158878253296,-48.83150395437475,-49.12901959327277,-49.42552328041948,-49.73784957191645,-50.07692441784413,-50.43527401289093,-50.81690092624551,-51.23802837334065,-51.69172913220241,-52.16054251165699,-52.62217708695754,-53.07142441212541,-53.499090089583305,-53.90535893844337,-54.28906610899959,-54.645827383516696,-54.94200400415557,-55.21649126036244,-55.48120978169992,-55.74678827016206,-56.02009874105786,-56.30732856961798,-56.61884607609065,-56.946346603464164,-57.28809525867162,-57.65070784090064,-58.01723797664921,-58.37955512925993,-58.740486956244986,-59.09455556956016,-59.44715263092003,-59.79950728294328,-60.14605710187379,-60.48485045924147,-60.81528367441918,-61.137310714059694,-61.428675076206915,-61.70253150996574,-61.96786441945963,-62.23359480861347,-62.49320343202395,-62.746659493727115,-62.9774541741654,-63.200550806934224,-63.42455383814549,-63.65781734492372,-63.90765059866847,-64.17050515702456,-64.43962118401026
-71.56886084916091,-71.4763554078088,-71.3823266326157,-71.23830906373486,-71.06325079470079,-70.85058762689177,-70.60434386552073,-70.34187155704444,-70.06945236197056,-69.81394581037029,-69.5838832571177,-69.36796430731329,-69.15661755048015,-68.93569198321549,-68.7164725006569,-68.48638526399407,-68.23733249439138,-67.99705816446584,-67.75806516280852,-67.52547333766988,-67.28589379425976,-67.0404993859953,-66.78840683599502,-66.52619092262017,-66.26686910392672,-66.02014577460328,-65.80113522127706,-65.60991452964238,-65.45719474875126,-65.31557859155254,-65.17389704307978,-65.034224257373,-64.897138267249,-64.76407077545355,-64.63718102697726,-64.51448206576339,-64.39722125086601,-64.2973490485353,-64.19961807057523,-64.07906942383606,-63.943421290773884,-63.789826499388816,-63.59761280970088,-63.39473976582268,-63.183159813224584,-62.94600607350783,-62.69828523110666,-62.44220439996777,-62.17118666871759,-61.93861764600791,-61.73871364679358,-61.58103745178046,-61.46015944699072,-61.36597323554875,-61.269420296492,-61.160899413699774,-61.034474492503925,-60.86265785253768,-60.65993771657387,-60.481001707449,-60.43550532276329,-60.7579890847751,-60.90206556838458,-60.86219516225228,-60.70854369593667,-60.58011244706728,-60.4520098057671,-60.31500180195427,-60.161224564277866,-60.0071592065576,-59.85798554295353,-59.7230566548904,-59.59550036168124,-59.48396777128693,-59.39348060582286,-59.29650294152102,-59.192152181307364,-59.0771491444789,-58.95169517073715,-58.81946674774437,-58.68155078754081,-58.53537615423747,-58.3825870201644,-58.22660899483313,-58.06088369066549,-57.88784364148197,-57.69947441538597,-57.50469623642274,-57.303027875291015,-57.115613328851246,-56.93851412808291,-56.75395767142055,-56.559339081290254,-56.35076970335822,-56.12321864795958,-55.86204407519528,-55.57085895927883,-55.264040939728275,-54.95348461229507,-54.6460556689136,-54.35610331440002,-54.08678130584411,-53.83317539050983,-53.58762929290064,-53.351721616000965,-53.11229652281818,-52.86176289082077,-52.60292133031854,-52.34268987592568,-52.0933843889279,-51.847504283974075,-51.611650714805506,-51.38962220008929,-51.17259504624802,-50.95181704438615,-50.71886419391045,-50.47470436716405,-50.19476999358768,-49.88657486261059,-49.57261400946648,-49.26239897834054,-48.98508031076218,-48.800173492458995,-48.708985226528384,-48.59342835121009,-48.129793420997636,-47.01235971644272,-46.40294350286283,-46.29387810030872,-46.041031827532045,-45.1404956797476,-44.29466582246019,-44.26459826923804,-44.86608352087331,-45.565481499890154,-46.00869552180846,-46.383453347002195,-46.696172640782294,-47.03235720780836,-47.372872382004005,-47.70922641836868,-48.03587392121668,-48.343108235437526,-48.63017823737184,-48.904422731822265,-49.18161848842131,-49.46954087267429,-49.76446900361533,-50.059305419085725,-50.36199343278521,-50.68926592754873,-51.04708431011186,-51.42851696257171,-51.83861119848703,-52.28314996283971,-52.73542241276026,-53.18772856638961,-53.62344972368448,-54.040638616146474,-54.44180542833419,-54.82436439180506,-55.17811994362021,-55.49444937486484,-55.7819257756032,-56.059757202058066,-56.338863892044465,-56.6214028719652,-56.92329716014791,-57.236543050711376,-57.561655550659225,-57.909318576293515,-58.26950922487033,-58.632775705008534,-58.994936662122996,-59.35094456360415,-59.70204068256499,-60.04736046978338,-60.38897837740234,-60.72386695313247,-61.04989114716678,-61.37134863541317,-61.69216450910754,-61.98973009114779,-62.268689881359414,-62.54029493876955,-62.810602291277476,-63.0756534264775,-63.322825695948765,-63.55960859655808,-63.78896191756431,-64.02163100866065,-64.26237254160671,-64.51488829658793,-64.78801807278074,-65.06212750717474
-71.54070967156801,-71.4521695629171,-71.34425742176701,-71.19730972457731,-71.00954714956154,-70.78051036061233,-70.52886839372201,-70.26126042496367,-69.9876414621376,-69.72922565367645,-69.49074837418104,-69.27368238251447,-69.05219703087886,-68.83346827265129,-68.61068658879393,-68.38342098062122,-68.15060201105561,-67.91490989167993,-67.68815137439626,-67.45804525937606,-67.21577422957435,-66.96102147243433,-66.69747584746642,-66.43429071816827,-66.17417320810785,-65.93397696722081,-65.72392223543365,-65.55122445243285,-65.40366821940893,-65.25555117166556,-65.10821694904108,-64.95957280197693,-64.81832782042719,-64.68223460065678,-64.55151682312369,-64.42564559372443,-64.3086195213017,-64.20878622070293,-64.13313127812523,-64.05424147062311,-63.939260073398415,-63.789971675452904,-63.606431519967046,-63.40757748793707,-63.2040910278444,-62.98936822853677,-62.75451654323301,-62.49908181660185,-62.23893482156074,-61.99903465995661,-61.80705966841944,-61.664792241684594,-61.55405735648795,-61.46966550299147,-61.38033075102064,-61.27998262739218,-61.1519151801962,-60.987776054372596,-60.779965019110215,-60.55139566973166,-60.44004506175958,-60.627445142385824,-60.807051103620374,-60.77840616862593,-60.67796669126027,-60.518878141990214,-60.372108666429384,-60.228356717185875,-60.08790830041765,-59.94343367244595,-59.808687595749866,-59.68290361198923,-59.570064549773434,-59.48304254736251,-59.401730705880766,-59.314248097850175,-59.20920674123487,-59.10106043725453,-58.98990152326965,-58.87102951549434,-58.745429603107034,-58.61148371683814,-58.47156379792553,-58.321472604287266,-58.155641177145085,-57.9727174373167,-57.77964789453506,-57.5855696349861,-57.39425325075886,-57.21762116873634,-57.044768003615154,-56.87305649710186,-56.68723559029417,-56.48594869842829,-56.26684045976289,-56.00950119581631,-55.71498962789643,-55.405887534409885,-55.09789112499766,-54.79718351878189,-54.50671260313311,-54.238157731882524,-53.987995484834315,-53.743153320631876,-53.511723110525345,-53.27807674630646,-53.0304716966684,-52.776570897008696,-52.52461957701714,-52.277591837273846,-52.03261440246436,-51.79683988096187,-51.57341866834044,-51.35603076860836,-51.1323621300179,-50.903681615255756,-50.660985163220346,-50.39899969792348,-50.10418726403397,-49.79720535084465,-49.49580277171117,-49.2544420097621,-49.08649914638726,-49.018312264902086,-48.7376896262518,-48.05610296165672,-47.055049250122515,-46.603453012605,-46.52449765778751,-46.26933569491837,-45.39388613077653,-44.70479787539338,-44.92257244669875,-45.555724495664386,-46.2330377103696,-46.637772887740006,-46.987271128454225,-47.34920637296257,-47.70852634740069,-48.06206561503696,-48.41285442461194,-48.74059914035895,-49.04205141152235,-49.31872278461729,-49.579609900258376,-49.84173285709044,-50.122124288694074,-50.405850404303585,-50.697570400374076,-50.99778525417063,-51.32297244170005,-51.67551945098624,-52.05252733094304,-52.452647285377125,-52.86820356308476,-53.306230065676715,-53.74095172293883,-54.16435354855882,-54.573295326069086,-54.96497370308721,-55.33982853710593,-55.698519000402456,-56.0254232257669,-56.33472103503598,-56.63141862981556,-56.92413514042717,-57.23112425094192,-57.54373056282028,-57.861012337466576,-58.19213427889779,-58.53762406787983,-58.89688465513974,-59.25590153029552,-59.613808495102994,-59.96834551301968,-60.31314595981709,-60.64979725641833,-60.98092799430724,-61.30639372371144,-61.61834928226968,-61.93127144043739,-62.25033292310606,-62.554949697745116,-62.841266895898045,-63.12131840013363,-63.39905236042273,-63.67017604797683,-63.923020474367505,-64.15796595545999,-64.39934643470806,-64.63591949977564,-64.87307621333777,-65.13139082737044,-65.40414141188913,-65.68369283627607
-71.5083195530127,-71.41168281595705,-71.29749505255978,-71.14673034597843,-70.94726504212518,-70.70218302966614,-70.44169136702742,-70.16723768088082,-69.89222379233198,-69.63255358807521,-69.38525741018589,-69.15996554393885,-68.93595290040949,-68.7172736735638,-68.49854222378991,-68.27762760270305,-68.05387941636249,-67.83666256157716,-67.61583442892112,-67.38826473118421,-67.14720111094123,-66.8896932715414,-66.62210960552633,-66.35430781053856,-66.1006179777298,-65.86947954892646,-65.66726938985099,-65.49892308031238,-65.34596687158381,-65.19299902917537,-65.03650884865762,-64.88260034488869,-64.73640544317345,-64.59319760588966,-64.45771202389882,-64.32928520351211,-64.21045485962694,-64.12098520527121,-64.05620873999996,-63.994794577664344,-63.91373760996741,-63.7733234727335,-63.6034689475923,-63.41156834311734,-63.21743564400091,-63.01354154228627,-62.79723094439826,-62.55304712229852,-62.29164989826471,-62.06150388756697,-61.876850137058895,-61.73815144813425,-61.6485425814734,-61.57339204375502,-61.48853791616268,-61.385536562907745,-61.258488557937234,-61.096519879918574,-60.881696465183836,-60.60170867902072,-60.36236379737291,-60.39374246898889,-60.47308485562754,-60.636450653980106,-60.60549615839176,-60.49681636026692,-60.31358424645623,-60.15907080242884,-60.01022103523481,-59.88350176685053,-59.76002893784356,-59.644144768803145,-59.55102888466314,-59.477886946318854,-59.40847187947301,-59.32610994291703,-59.23206751439953,-59.13128406278666,-59.03404347939036,-58.92821893366303,-58.81027978070616,-58.687657574267064,-58.556824436049176,-58.41360958859442,-58.249315355400064,-58.060234225605626,-57.85965069301198,-57.66551312857929,-57.478263780199825,-57.30432223072861,-57.143753147220664,-56.978640228286785,-56.802835903328614,-56.61197913530324,-56.396665575292424,-56.14090115746792,-55.849150201900855,-55.53959151664256,-55.2400506682503,-54.94533568650926,-54.65371830202157,-54.386800352446826,-54.13415943137816,-53.892441726596765,-53.66502618548611,-53.43351525642194,-53.19302619649208,-52.940135797963194,-52.68889855159313,-52.45124300990325,-52.20825058990762,-51.97741355562921,-51.75604728146895,-51.54172374344702,-51.32528432554675,-51.095516939139124,-50.86672053713197,-50.61812384668215,-50.33958546291258,-50.04793072579691,-49.76902962546956,-49.55744498766263,-49.38827589370104,-49.151300448682164,-48.39874115641956,-47.49480266217533,-46.7404511909598,-46.684094075851455,-46.74380675729133,-46.72634413429818,-45.96423411429815,-45.45300072443409,-45.374992198736905,-46.12204208045394,-46.71372298596019,-47.20434216684272,-47.60183324058343,-47.98757364432305,-48.37504077691811,-48.74908312815353,-49.10217602917322,-49.428985478105076,-49.71991181176429,-49.988802118539226,-50.25554194828426,-50.51248700237753,-50.78096059782859,-51.053662072549585,-51.33803258318234,-51.638445739631095,-51.96302370627525,-52.31217295727655,-52.67848468059758,-53.05102655840912,-53.449439489599484,-53.86413802911705,-54.282489509619566,-54.69439160586607,-55.095534960321245,-55.47783828039495,-55.85175157939676,-56.21223577863902,-56.555289345303265,-56.87910251300218,-57.19265188593715,-57.51313053694029,-57.83425750331904,-58.16273475988349,-58.484602542224,-58.81675018112545,-59.165256692444544,-59.52152727398314,-59.87727402283408,-60.230512193827636,-60.58094534124791,-60.919083628112446,-61.24924712615053,-61.57407079238517,-61.888824338334125,-62.19612196132735,-62.50908829330294,-62.82430107688613,-63.12862710529585,-63.42123294059502,-63.708181842066615,-63.995468534093625,-64.27109633465105,-64.53174896965285,-64.77588525316645,-65.01814908153477,-65.2638783346311,-65.49995990105572,-65.75459031990815,-66.02174672473507,-66.29288090783302
-71.46497177739397,-71.35524773884289,-71.23376864175475,-71.07719215022223,-70.87413229332941,-70.62994293016413,-70.35499099524907,-70.07270263990966,-69.78957961563455,-69.51743391061528,-69.26544806624345,-69.03336404880177,-68.81280135046072,-68.59925959014953,-68.38638849454543,-68.17205085805963,-67.95985632039218,-67.75048912099345,-67.53950916700052,-67.31168558067081,-67.07282171973145,-66.81971192835103,-66.5512709932686,-66.2897375860166,-66.03989450554107,-65.81490125674803,-65.62337944817183,-65.44511453862106,-65.27970062932563,-65.12296425446536,-64.96365575780526,-64.8035392105137,-64.65131079501883,-64.50320077601364,-64.35955051167409,-64.22794508078678,-64.10848766595409,-64.02432151697184,-63.9680353391298,-63.92082379375976,-63.853396891418875,-63.760972842108636,-63.599850697808286,-63.41947919177069,-63.22688462911751,-63.042584336170925,-62.837355505324275,-62.608687029241004,-62.35718175436699,-62.13809527670068,-61.95839363019736,-61.83442391630336,-61.75058140229342,-61.67609177143911,-61.58938504543789,-61.47515122977948,-61.3398143146775,-61.184455206396315,-60.98402550015755,-60.668346741963944,-60.363063244987586,-60.097576361141904,-60.126819814597184,-60.26086459403328,-60.50529338915209,-60.44442285787765,-60.31273245615058,-60.09927505957591,-59.95686423954015,-59.82989550475714,-59.71816797628519,-59.619014197749706,-59.535626676120216,-59.47211477001457,-59.416622131857345,-59.34008776102606,-59.25797374054146,-59.178836979531496,-59.08967334620753,-58.99026007806023,-58.88286676289269,-58.76761799371689,-58.64306393229403,-58.50375025379393,-58.3439902229293,-58.15194029196121,-57.948520137618154,-57.74581876520641,-57.56217561916659,-57.395598870680516,-57.23931483797469,-57.07737745346428,-56.9038600038829,-56.7162718377973,-56.499004429618964,-56.247749732316066,-55.96576572272483,-55.67194606689738,-55.37603009414947,-55.09202341775895,-54.80389765547886,-54.53535967734054,-54.28212405789796,-54.04662715506418,-53.81838265441837,-53.58646950594225,-53.34146203646717,-53.08942183595276,-52.84253410570218,-52.60322000448335,-52.37272633955721,-52.15092686137548,-51.94013575043091,-51.74192248870112,-51.532259380898154,-51.31445918588091,-51.091917074522044,-50.84576339400207,-50.58640837654404,-50.32666820521439,-50.07918713084621,-49.85687245946377,-49.642366461913205,-49.1192848108918,-48.03496446364353,-46.92137985773438,-46.73366718942896,-46.817634933301306,-46.937010256522186,-46.58298095363934,-46.131857537954915,-45.80658248936605,-46.07401507818806,-46.803423996297326,-47.415892216337944,-47.831516556733085,-48.21805524943446,-48.6223499551368,-49.02754077247887,-49.41290486155163,-49.76470966019106,-50.081683536316945,-50.36815134518946,-50.642037861905074,-50.90671696390426,-51.16615742899332,-51.429505150412695,-51.69989765149292,-51.986507860094015,-52.29139903215629,-52.610571273488354,-52.94797505271346,-53.291410691156194,-53.641993058972,-54.01714724499872,-54.410595331119254,-54.81505327685586,-55.21635271599294,-55.60026811439289,-55.98187249897046,-56.35646262667495,-56.72250362883842,-57.08065473470725,-57.421902863084995,-57.75306444027314,-58.09125777686887,-58.43085766872341,-58.76551387163081,-59.10199320994079,-59.44212660561894,-59.79237387570185,-60.14660521737255,-60.498902799495255,-60.848841817759975,-61.188335113412684,-61.5195084959296,-61.84536298722502,-62.16097288481168,-62.468404821749154,-62.7728428491597,-63.08318295752292,-63.40145272899558,-63.70873724043181,-64.00871357071739,-64.30590105504574,-64.59712937589481,-64.87912382460988,-65.14381330757408,-65.39177063312295,-65.63927490865804,-65.88139339187833,-66.12076156285258,-66.37310798201584,-66.63725144438294,-66.9058108226042
-71.41291339977198,-71.2981131527859,-71.16109227920965,-71.00342687731464,-70.79838422426636,-70.55412035757257,-70.27404498267603,-69.9819760072836,-69.6915432495979,-69.41149414418064,-69.14999856441985,-68.90971267315433,-68.69182420432223,-68.48453707458489,-68.27754975377265,-68.07021819222246,-67.86195416307363,-67.65493262342981,-67.44565443582871,-67.22876087429962,-66.99132065466797,-66.73948765791908,-66.48332282198851,-66.23010877057483,-65.98904717706294,-65.76936529213236,-65.57320429769982,-65.39035557400469,-65.21569810999182,-65.04931682812375,-64.88701371812112,-64.72235627395477,-64.56176126785589,-64.40918643351685,-64.26243368321445,-64.12516653647342,-64.00542576183503,-63.9212501436539,-63.876294163915276,-63.84549103230314,-63.793146002008505,-63.70979733950984,-63.594526914274454,-63.42773677711236,-63.251751961296186,-63.06883795231378,-62.868966148501954,-62.64322688512148,-62.42032607808232,-62.21837126100162,-62.05735398145787,-61.939476289618256,-61.8528878804307,-61.776410600585116,-61.67357762923968,-61.54706259925335,-61.39831181111461,-61.21607494164143,-60.98682643678697,-60.711511878076735,-60.36183308832814,-60.01667115371507,-59.77587143036991,-59.852084379080196,-60.069138388945596,-60.31363368097408,-60.27696140762779,-60.12694597953468,-59.934055435161156,-59.78937671892105,-59.68429313890552,-59.59670240810418,-59.52513337594222,-59.477160578949096,-59.43248441591787,-59.37740470300291,-59.30616629586663,-59.233298546506305,-59.152998875581254,-59.059443100922095,-58.957983273053614,-58.84992829664024,-58.73027587548432,-58.586172317024904,-58.421261022880174,-58.23578272898412,-58.03038382182474,-57.83494472862557,-57.64822467785346,-57.4847738343322,-57.32755464829693,-57.16693756884436,-56.9940226602857,-56.798633698059646,-56.58412146937382,-56.34261645292785,-56.068211767651356,-55.7876861902009,-55.504280547976094,-55.22211169118381,-54.94216655567887,-54.67915629067621,-54.4332238953954,-54.19570163598472,-53.966487911932894,-53.73153860499629,-53.48708896892451,-53.237487884225914,-52.98929089289267,-52.75698131170033,-52.53333895154941,-52.32203385256452,-52.12837192525572,-51.93946374721651,-51.75165314875877,-51.5472269161191,-51.32518108172281,-51.08575134700456,-50.84811794526498,-50.60565537989275,-50.37910911370804,-50.21707058542221,-50.0454466682565,-49.43619773105233,-48.32843561846178,-47.19632032113468,-47.00148057712421,-47.03542533217612,-46.79745792445563,-46.49074538322762,-46.19844287739823,-46.29060438138899,-46.755512133941764,-47.38802169636628,-48.019884700332724,-48.43032151009088,-48.83414902482295,-49.252133263542795,-49.66564713662984,-50.05072865562351,-50.39995495167015,-50.7085212880087,-50.992866430354866,-51.26967725784386,-51.54028281478875,-51.80415377524467,-52.06735230671762,-52.34483824514719,-52.64138949861796,-52.94735316122586,-53.25693534301709,-53.57048324905677,-53.90038079299045,-54.23217750523888,-54.570279206401764,-54.94292818748593,-55.33358039553725,-55.715629801216146,-56.09383402160915,-56.4741761098449,-56.8541294559832,-57.23156324345791,-57.601210209098895,-57.959056120077996,-58.31257473644371,-58.663383123822165,-59.01752612795766,-59.37024738351974,-59.71439420344518,-60.063082260401316,-60.415433482361,-60.767918312586325,-61.117436847753766,-61.45801886038147,-61.788893977889195,-62.11176531572413,-62.42840542522315,-62.739145181790235,-63.042544251636706,-63.346744511994316,-63.66068854316683,-63.98030317486066,-64.29495440433297,-64.60680690400827,-64.91125100499315,-65.20744726929681,-65.49005973587359,-65.75640050768288,-66.00560315106186,-66.25147992445021,-66.49732844633935,-66.74085405134926,-66.99648931732752,-67.26275703589974,-67.5319126698312
-71.35114276820512,-71.23767998277395,-71.10565370727038,-70.9463793385,-70.74185161030357,-70.48007391719295,-70.19767397520634,-69.89823359141792,-69.59966080595527,-69.31489080162808,-69.04450244334781,-68.79885367888768,-68.57846362868895,-68.37304034990422,-68.17306534530093,-67.96844465610197,-67.76222914193221,-67.55458256389836,-67.3452824277902,-67.1279983166996,-66.90122176630705,-66.65882362258367,-66.41420707475443,-66.17077170267999,-65.9414038646739,-65.72731929306865,-65.53156148251699,-65.34314604322367,-65.16270449527246,-64.98869820842275,-64.81449857441324,-64.64437914755385,-64.47867630716102,-64.31744227719032,-64.1663730435786,-64.02671497407718,-63.907689151564966,-63.82921164293357,-63.7867086531883,-63.75589221722338,-63.71851055296815,-63.64953580958687,-63.548939552620794,-63.41935289978714,-63.2549117915151,-63.07808406736859,-62.88593567788724,-62.68070425047084,-62.4750431831241,-62.313275420144734,-62.17346099838768,-62.04420579851971,-61.96206553290804,-61.866009832609095,-61.74323941277768,-61.59605106475058,-61.41369222570908,-61.19112554008878,-60.940395536655195,-60.664660630689276,-60.353236809743336,-59.98096892702303,-59.63949754842564,-59.44381157408269,-59.611253753814935,-59.89056760522795,-60.13654141198247,-60.10490119849662,-59.96039336693765,-59.79003867857901,-59.66141079236152,-59.57412011371585,-59.51519889915632,-59.478454175362224,-59.45030799995378,-59.40729501640914,-59.35710638347567,-59.292018862446405,-59.21740893938214,-59.13432600544309,-59.03936823348936,-58.937233963400345,-58.81621542805439,-58.667217837410895,-58.49725649582643,-58.30708761519126,-58.108780176234106,-57.91254558698975,-57.73199992913542,-57.5684333249348,-57.41158555259734,-57.248850894525816,-57.06894521603134,-56.87491058477406,-56.66209932189906,-56.42374780993485,-56.16604418203977,-55.89037421314049,-55.61691623538862,-55.34598608026954,-55.0761912345077,-54.81946906591821,-54.57489233658838,-54.34070815694768,-54.107947232059544,-53.871169134154215,-53.63026743639889,-53.382085716172,-53.140520959550656,-52.910726649453,-52.69843944534247,-52.499658930441676,-52.31141275695576,-52.13674997426922,-51.96425682318139,-51.776050109220215,-51.56298999843812,-51.3401824277597,-51.125169080200294,-50.91496404822121,-50.70449347158682,-50.60314875571399,-50.3903441251951,-50.00699329811119,-48.72487198674911,-47.72628573308621,-47.377654671299226,-47.270485900155336,-46.9971957659129,-46.604650282559106,-46.68549253515647,-46.91025008847185,-47.280316838605714,-47.993616570302265,-48.59854155956291,-49.006929379697795,-49.432286633114444,-49.85413121814339,-50.2804920434166,-50.66566855562759,-51.00430929751591,-51.315039975396076,-51.60421619948668,-51.88087901218215,-52.1577557210776,-52.43096235454251,-52.70060199172994,-52.991634601775665,-53.29209502708716,-53.594352413626936,-53.88326086969139,-54.1809847585569,-54.49962958930735,-54.81157953528002,-55.13312382007403,-55.469151073480006,-55.83798978999134,-56.20837312845501,-56.58168035925765,-56.96370730267349,-57.3496836274941,-57.7364298070262,-58.119346126195154,-58.494921122460894,-58.86784315414957,-59.23951453357639,-59.60995695034535,-59.97304737051017,-60.330953230326486,-60.68100674410663,-61.03170393495326,-61.380773014437146,-61.723466625894446,-62.05575324147179,-62.378527713494755,-62.690927388584974,-63.000408374873686,-63.307621164947925,-63.61283224856824,-63.92085515442251,-64.23906394582319,-64.56628312440152,-64.88466799477811,-65.20265196379391,-65.51759008958787,-65.81685838432018,-66.10265139709061,-66.36952792976842,-66.61526310470825,-66.86385823022808,-67.11672571927403,-67.36822345895378,-67.62978413384984,-67.9007225342001,-68.18064415015732
-71.28130353152355,-71.18220241365097,-71.05396014653077,-70.89194195547083,-70.67761723023519,-70.42132654403025,-70.12716794289534,-69.81380633303603,-69.50863948433829,-69.22111212949277,-68.9498873957832,-68.69638566106413,-68.47245787051706,-68.26806630595631,-68.07043280181317,-67.86703370507945,-67.6576265178658,-67.44804931807892,-67.2399779456648,-67.02493384901483,-66.80366607674827,-66.57814113960924,-66.34360151129087,-66.11458877961942,-65.89491974551666,-65.68819788372298,-65.49378003656186,-65.3060541454727,-65.1210202579749,-64.93903387049133,-64.75743724665011,-64.57790822755791,-64.40320943664642,-64.23658023079363,-64.07980087364184,-63.93802728257997,-63.82501728708097,-63.744526251462496,-63.6940244864946,-63.665569342182565,-63.62801757968535,-63.578492707399946,-63.4938689142257,-63.37955359122508,-63.232796487154104,-63.06360143139379,-62.885816636765384,-62.70839639034917,-62.531548573342704,-62.40043409586204,-62.26626509327352,-62.15637379754047,-62.052611689279445,-61.935408228310386,-61.79074668402729,-61.6150894470569,-61.394391816324145,-61.1470039807038,-60.86384626672051,-60.58582348298502,-60.280921941077914,-59.96668145707823,-59.5716526557189,-59.30170983413517,-59.140338395082374,-59.406165227085836,-59.71672754230133,-60.00495878379952,-59.96480125498744,-59.83962675355961,-59.66374573822573,-59.566025501015915,-59.51000296076552,-59.47332225339218,-59.45290654784962,-59.42903805110975,-59.39226191787515,-59.342263346697464,-59.278104023786305,-59.2016081580597,-59.11699735348246,-59.01797903871682,-58.88866550929164,-58.739564491822755,-58.56550586533794,-58.37385442088419,-58.1801461945883,-57.98917771717844,-57.817116316324174,-57.65100603653495,-57.49365419648308,-57.31996796205569,-57.13505487576252,-56.93966883084529,-56.728149112052,-56.5006520466232,-56.25559600801641,-55.99888867730597,-55.73270353965109,-55.46963299685037,-55.212041458224576,-54.958303001706035,-54.71478552344976,-54.48024067836699,-54.24611667787315,-54.008373244811104,-53.76719504016393,-53.52727139950039,-53.28686687076741,-53.06638384206859,-52.86829107660988,-52.677787232217895,-52.495928757707055,-52.33141666487869,-52.17300016411945,-51.99615594961911,-51.80719103184967,-51.61697263186476,-51.422080626633836,-51.23110086295297,-51.06889619536419,-50.87443222142653,-50.471826799230904,-49.328179393706826,-48.34965596739363,-47.64577623153609,-47.66114496177314,-47.71854923687795,-47.520425558841254,-47.26696112847529,-47.359845487161834,-47.652421365330255,-48.04160554904824,-48.67519105793685,-49.185447148631425,-49.60417791116068,-50.00572236954033,-50.434185092955666,-50.85816640745392,-51.25470214191914,-51.597827832791026,-51.90759041738859,-52.19635594700338,-52.487861245137175,-52.771459671053634,-53.05271707101164,-53.34037138886894,-53.63616795143345,-53.93263998475428,-54.20135569114501,-54.4685820453512,-54.75276632542614,-55.054505939636954,-55.36332367965929,-55.6738513732256,-55.99200968362196,-56.34267907253403,-56.707183199104804,-57.07738997429817,-57.46011881492312,-57.857190444056364,-58.25344578750831,-58.6542954359684,-59.04931828353867,-59.43720250329246,-59.821426168001175,-60.20580185416647,-60.57972391739223,-60.94218612056595,-61.29288911917915,-61.63790366541228,-61.98007705159617,-62.31341727600453,-62.640767969571186,-62.95562223024419,-63.26084661909204,-63.56581402239765,-63.871579377040376,-64.18026967522624,-64.49193699375155,-64.81327499119523,-65.14135637732608,-65.47040250487746,-65.7962361806949,-66.11623346558997,-66.42273851140429,-66.71095290561541,-66.96983421829047,-67.22157116968121,-67.47753209798387,-67.7377923473162,-68.00299982247287,-68.27535574875724,-68.55770864430013,-68.83999032996245
-71.22194896784622,-71.12187638066884,-70.99767401286748,-70.82412675107621,-70.61253196961856,-70.35282995347453,-70.04615572395815,-69.72418845730422,-69.41669773851218,-69.12636938271714,-68.85020865889295,-68.59266197235615,-68.3653579503404,-68.16651847388852,-67.96701100723448,-67.76303822351832,-67.55104004600395,-67.34380574569956,-67.13373208828872,-66.92389176803317,-66.71360326869079,-66.49583295157588,-66.27761907014262,-66.06052762990937,-65.84772546169341,-65.64677208808078,-65.45199570500478,-65.26689402999041,-65.08709146015435,-64.90123060252884,-64.71275898737943,-64.52561380150568,-64.33987775851026,-64.16709620355876,-64.00727647333495,-63.86598317323097,-63.750882200741856,-63.66923373144725,-63.61911480956076,-63.58093434828264,-63.545750519160734,-63.49538595590195,-63.42952760991463,-63.330769290370576,-63.1947709861018,-63.03200567974983,-62.8699645913716,-62.70460418788505,-62.54656928266944,-62.42961186157222,-62.316845376168494,-62.216949116309536,-62.104450320808624,-61.97188797264725,-61.809768946561064,-61.60309752789013,-61.36936346315261,-61.097246551481675,-60.80303924767178,-60.50165872003293,-60.19694882858046,-59.86541929575085,-59.53660253779979,-59.208412410388036,-59.00715628968574,-58.911892698187586,-59.21364440311194,-59.56296090885118,-59.86890731509142,-59.85657536115106,-59.72475334286793,-59.58197015908981,-59.504229079325015,-59.474920464221825,-59.457804938289314,-59.444689105502334,-59.41934350633628,-59.37994972926497,-59.33021047054679,-59.26198323783232,-59.17615103869498,-59.07399937117025,-58.951725964041046,-58.79923529332504,-58.62395760009662,-58.436073207466414,-58.24504929253043,-58.06515503408506,-57.89311466740378,-57.72808012601129,-57.56089543547385,-57.38929898903814,-57.20434694101045,-57.00395907969398,-56.79182400236273,-56.57340299056347,-56.3438474202688,-56.10498475793158,-55.85632988931464,-55.60260180369046,-55.354004986924764,-55.103964851665594,-54.859907197302526,-54.62202502345588,-54.38442246803366,-54.14480224803758,-53.90593819827793,-53.66903715647855,-53.433597890016834,-53.21808812750717,-53.01902233345349,-52.843508758847854,-52.67758923673133,-52.52649113924858,-52.38003829495891,-52.22582476585214,-52.058598751515916,-51.88489010268079,-51.708399421424645,-51.517530618927545,-51.31783203434078,-50.95641051438051,-49.84005492510893,-48.685104403251245,-47.80355588660757,-47.776803470408396,-47.91825624565494,-48.01720556333283,-47.878222601645405,-47.71011282764289,-47.92424531213565,-48.225593357690215,-48.639908260575936,-49.25497863753364,-49.7633492924552,-50.1630393932929,-50.57368676990512,-50.992954971363716,-51.414877049633034,-51.80703032968417,-52.17218576603252,-52.493827035136874,-52.79215431028972,-53.089098523134886,-53.38269155158164,-53.6702956709079,-53.96050825966638,-54.256742478068475,-54.530412325755435,-54.78911742874916,-55.04488823445373,-55.312803143510635,-55.604450571366996,-55.89956119752321,-56.19320437214064,-56.50444868505969,-56.84920431121079,-57.2087648044302,-57.58530208997841,-57.975051508499426,-58.37950883304714,-58.7938983671312,-59.20860748104577,-59.62149976810491,-60.027627179761026,-60.41710607741136,-60.80588366706746,-61.18436659733996,-61.54405167312467,-61.89204745788384,-62.22957856356873,-62.56190955851424,-62.888322574540915,-63.20796685141485,-63.51636738886876,-63.82090578562841,-64.12615666039267,-64.43655650154308,-64.74741836475324,-65.06166409232965,-65.38504114109229,-65.71733024044049,-66.05115766796521,-66.38796475043814,-66.71386417130644,-67.02431666921134,-67.31786582236083,-67.5859992065929,-67.84165525259371,-68.10533285299067,-68.3737041721839,-68.64723314715928,-68.92852615527279,-69.22084304654649,-69.5076842038913
-71.16877981755127,-71.07581248413332,-70.92900579193362,-70.7439168191084,-70.53074993732211,-70.26022541257086,-69.95442210324946,-69.63286020464402,-69.32388023858864,-69.0324378236632,-68.75295994067363,-68.48594245141065,-68.25951624217815,-68.05781434878799,-67.86622722477117,-67.66493513378984,-67.45381282361618,-67.24363377113151,-67.03986306498132,-66.83484107269902,-66.62995164937841,-66.42414968069926,-66.22212357418616,-66.00903705474006,-65.80073503281852,-65.5996154947329,-65.40883090252261,-65.2267847224626,-65.05113072086752,-64.87096923431571,-64.67847519928074,-64.48159655781558,-64.28966681881465,-64.1096556144116,-63.947773558256344,-63.8092440008155,-63.68961470312462,-63.60528753560763,-63.54925147397345,-63.50395320901553,-63.45969385151907,-63.40759258792924,-63.34653395348724,-63.27275265664983,-63.15087730867851,-62.997543765391626,-62.84793722459207,-62.70083312448189,-62.56283485652493,-62.43604575550266,-62.33198096425458,-62.231766708048426,-62.12208874071072,-61.987102106749035,-61.80576509813554,-61.58412139307571,-61.329611002601695,-61.04441114567033,-60.74067814373949,-60.42480050473986,-60.09165087288808,-59.77167714219885,-59.468326741725335,-59.19760046563225,-58.9372828824871,-58.762697887091555,-58.762500502369534,-59.10889066084319,-59.47783693495348,-59.74621778816085,-59.7663022665908,-59.65383903098004,-59.54815341137899,-59.48800421568791,-59.471758217085096,-59.461139614306205,-59.44673442966856,-59.41697194862122,-59.37219574012684,-59.30934355629061,-59.21852597121894,-59.11318469534212,-58.99144292897141,-58.84628912668092,-58.67611193821025,-58.49472553657874,-58.31634298465113,-58.14103362309234,-57.96853669834502,-57.79649184845092,-57.628289761579225,-57.4569644260969,-57.276552336897225,-57.07852194501272,-56.866687202933576,-56.650579809231495,-56.434489073885686,-56.208856283982186,-55.975676901889855,-55.74082867773316,-55.49717711816792,-55.25209405236528,-55.0070301832895,-54.76383668830769,-54.52448000688582,-54.28616151109498,-54.05134876663543,-53.81759829012632,-53.584771443409394,-53.36009452526752,-53.16667148871345,-52.99879158333785,-52.84807972193312,-52.70696364972945,-52.579214289925645,-52.44901349161705,-52.300406796783875,-52.13533644544257,-51.940759542898185,-51.790116439138856,-51.575506627593924,-51.125160393604546,-50.03156117172166,-48.3445512962643,-47.998083030018876,-48.07573178560925,-48.26804956814888,-48.29590527152568,-48.213106195391106,-48.155472031532554,-48.40953362846119,-48.75948344135375,-49.19525720611662,-49.79097512605589,-50.27525469909611,-50.707017135592004,-51.12750151664242,-51.54488757599401,-51.95929430027287,-52.35905969037632,-52.72920850129208,-53.071030969788964,-53.38754658303979,-53.68813830094223,-53.98331962923882,-54.2745141623736,-54.56462760577732,-54.8412075429013,-55.10733110639865,-55.36211569166994,-55.61363027289195,-55.87353429440737,-56.14651595218103,-56.42909749008467,-56.71745798449311,-57.01704212411825,-57.361797457710374,-57.72682872284539,-58.10808115584195,-58.507963646267115,-58.926792969112256,-59.35178470155564,-59.779662846541584,-60.20741132867387,-60.62131202804309,-61.01822500282155,-61.405082301664834,-61.77617452691557,-62.13353710090817,-62.47442827532224,-62.80055809000463,-63.1264395566205,-63.44819650962789,-63.75890340247254,-64.06730906917022,-64.37423148641012,-64.69047635508596,-65.00411077360013,-65.31823888914174,-65.63621033422541,-65.96358649896527,-66.29710237458244,-66.63825549205198,-66.9792678972099,-67.3165725988944,-67.63368420278867,-67.93738134854458,-68.22150945807587,-68.49158431923675,-68.75647006382752,-69.02624493697958,-69.30239238287884,-69.59191187665067,-69.88934831346305,-70.16962678714388
-71.11043958722055,-71.01712289925607,-70.8714734590684,-70.67337620522697,-70.44817232571873,-70.17044135489976,-69.85641673030418,-69.53196288864086,-69.22167230597702,-68.93016468093352,-68.64865516618332,-68.38639427423632,-68.15349140962265,-67.95972626469869,-67.76798376737433,-67.56970924466255,-67.36255598065787,-67.15868519129536,-66.96271278926176,-66.76906414000793,-66.56942599454155,-66.37569625417102,-66.17433217217392,-65.9665967402666,-65.7558894600081,-65.55478571440582,-65.36459566498397,-65.19118314519487,-65.01788280751778,-64.83942788139882,-64.64715356796275,-64.44732293430636,-64.24908335128929,-64.06742870241328,-63.90322363117143,-63.75886577877196,-63.642397380535094,-63.5522646260998,-63.48196092767316,-63.42920101950881,-63.36810411722384,-63.302125708967694,-63.24110093979296,-63.17499398177132,-63.08965353970158,-62.94997542265772,-62.8161374550378,-62.690574141347696,-62.56733041911734,-62.44108953222286,-62.328253070728586,-62.22889825041375,-62.12042909374534,-61.9790975930491,-61.79718524195572,-61.56132380641559,-61.28842150107866,-60.999200436436254,-60.684967926108754,-60.35350641601572,-60.020875874979936,-59.695059852875325,-59.42436390475874,-59.18999453268155,-58.97147214206471,-58.72512618617168,-58.61468413689,-58.648336332308524,-59.03278616108565,-59.41195777422162,-59.69716277111192,-59.71321661564043,-59.62190411780664,-59.53733036373288,-59.49855872069145,-59.48378790454579,-59.46950503752826,-59.44757388751265,-59.407521380764365,-59.33702492360522,-59.24894123081799,-59.14079702205465,-59.01543109407171,-58.87713444390363,-58.72344765849054,-58.55435559228196,-58.385321697271465,-58.21552737012071,-58.039919254774006,-57.867534514667994,-57.69712980403787,-57.52937455907552,-57.35082645874368,-57.15998448776053,-56.94829213110292,-56.73590028706471,-56.52384536517829,-56.31068252865933,-56.095890389566975,-55.87307420355714,-55.63949580660155,-55.39707184232522,-55.14914119337199,-54.90578711215699,-54.66737390470242,-54.43363799317876,-54.20412464033856,-53.976317196771454,-53.74237524500423,-53.519000189035665,-53.313631324444984,-53.16094186820139,-53.0158072071098,-52.88035582332958,-52.7701637581892,-52.6464282694586,-52.51743601682157,-52.357054089913056,-52.17759662549991,-52.02561651323137,-51.966095372266,-51.53980713882737,-50.60141071179531,-48.99804981145077,-48.58433211540989,-48.48209143705043,-48.56462613302225,-48.63430880967479,-48.64558697071726,-48.706155066654276,-48.991982248835654,-49.33638815760793,-49.83218974325948,-50.39420982244144,-50.85226832631341,-51.271454702179724,-51.67890025766788,-52.09344537273559,-52.50474286113836,-52.901427260398464,-53.28427407332667,-53.63695343344607,-53.968312146238695,-54.27738320711603,-54.571870538009584,-54.86229482693722,-55.1437705734719,-55.41298972462078,-55.671308951892705,-55.916854413343984,-56.16399234027152,-56.419109376643604,-56.68609282395323,-56.96455309254648,-57.25078673337204,-57.55891749905278,-57.894789756109816,-58.2657129498519,-58.65375948791038,-59.060816933018145,-59.48547973497725,-59.917712296980376,-60.35578998306818,-60.790701194182475,-61.20821977060018,-61.60602140643635,-61.98631730569164,-62.355039580930395,-62.70837541275526,-63.038609276219205,-63.36128241170107,-63.68024511235599,-63.99617732379478,-64.3074081369,-64.6187886248675,-64.93995336395946,-65.26139652639148,-65.58050463602277,-65.89694888749703,-66.21822105891917,-66.55016570208417,-66.89170912785686,-67.23238943440927,-67.58069814612313,-67.92046561381358,-68.2499070894603,-68.56718501753318,-68.86582805271173,-69.156295431401,-69.42977435702119,-69.69714819468108,-69.97354429280391,-70.26475255369218,-70.56526095848132,-70.84775113335887
-71.04179540160521,-70.94476858843635,-70.80521594842273,-70.60731345419589,-70.3627462173474,-70.07463837493414,-69.75292492618264,-69.41818072999999,-69.10831769533739,-68.8148851926199,-68.54597106464885,-68.30120567817721,-68.07457889390386,-67.87450077352477,-67.67572238240064,-67.47628659755622,-67.27827835574843,-67.088652296838,-66.90266359014024,-66.71595027655174,-66.52813028910941,-66.33842201033806,-66.144668399302,-65.93037479113318,-65.71927187673799,-65.51679740444136,-65.33588364280223,-65.16130211288382,-64.9873100918519,-64.80540275334079,-64.61770162258384,-64.41860148183721,-64.21812223621633,-64.03593889326343,-63.87061740218178,-63.72520866762071,-63.59690748642156,-63.49263971128137,-63.41472365989824,-63.34535086204107,-63.26146366230247,-63.18316757406238,-63.10736280694109,-63.04760727198288,-62.968764883473185,-62.86896070562731,-62.7650194922111,-62.65781682763358,-62.564931020577696,-62.444428718033215,-62.3247183999245,-62.21290217146526,-62.10413030450353,-61.97423064165597,-61.792827345397576,-61.54654735038358,-61.26156734199341,-60.96039552828948,-60.639468893573074,-60.30740063718348,-59.97995104211405,-59.67883469298968,-59.40034059860177,-59.17328203216437,-58.96187387274463,-58.78287484612986,-58.58749923913308,-58.529482346977034,-58.59645602192245,-58.98965045608364,-59.37418504826457,-59.67212560829199,-59.700030353353604,-59.6131395441611,-59.536508162006,-59.497217207018906,-59.4801933318018,-59.46179061287708,-59.41484409008006,-59.349442513004014,-59.26296310472271,-59.15754746566232,-59.037366676956275,-58.9027527617059,-58.7576167992001,-58.607357844936296,-58.44770184745518,-58.28626664761895,-58.11281310729933,-57.94370955170589,-57.7768937066548,-57.60963172263289,-57.43103975684559,-57.23755694830386,-57.03126745272279,-56.82546495198108,-56.617713729346846,-56.414010494239974,-56.21502362363823,-56.00420147715193,-55.77703997978827,-55.53639781635385,-55.28817570403555,-55.0431509263011,-54.81075654968646,-54.58283504247622,-54.35672505631255,-54.12927380630051,-53.90185891292133,-53.679116722552685,-53.476995178514514,-53.32478748956646,-53.18493256434604,-53.05788976311375,-52.938676753304705,-52.820002108261036,-52.69300724507832,-52.55986429207054,-52.41051108189615,-52.331604573111726,-52.03994076928025,-51.3219229081316,-50.101857275610925,-48.88530449258726,-48.74458944480726,-48.77852189346374,-48.844815601890716,-48.90737240941739,-48.985438178905156,-49.18119546935582,-49.538930027896924,-49.92557257968856,-50.4151103071362,-50.920508218288965,-51.40594399173976,-51.81822250667763,-52.228609118349866,-52.640082684046476,-53.05062085455859,-53.45175911153618,-53.83660830420803,-54.20464983886251,-54.53845977043301,-54.85192734161656,-55.1531282960041,-55.43821435653308,-55.712423898768336,-55.97363390967731,-56.22125193652765,-56.46437978311561,-56.709477164862264,-56.96037638760938,-57.22224286706983,-57.50012220704804,-57.79301506857964,-58.11367072059829,-58.45754691345088,-58.82430726879743,-59.221525315208254,-59.63054032167575,-60.054589653050435,-60.49037681207788,-60.92894597795655,-61.36740075524335,-61.78735035921795,-62.17659639523227,-62.552293791510934,-62.918822540926335,-63.26281600138136,-63.594119385336526,-63.91549038505846,-64.23315470550486,-64.55255911004008,-64.86532333527313,-65.18712579474354,-65.51257065537953,-65.84046829342243,-66.16416394970676,-66.48840830927864,-66.81865526153672,-67.15825956115724,-67.50429904547843,-67.84513729268409,-68.19142372613241,-68.54259397319873,-68.87805693199373,-69.20590927776233,-69.52197950402031,-69.82634089253803,-70.10847706623446,-70.3839377435014,-70.6596786539555,-70.94889903253377,-71.24962047853913,-71.53418238643056
-70.96998419682856,-70.89718182047282,-70.7458543592484,-70.52297726735918,-70.26474085241811,-69.96777524623707,-69.63740963938635,-69.30236707476337,-68.98735056115356,-68.70151763378874,-68.4477862367489,-68.20869970371672,-67.9912990032436,-67.78648371822032,-67.58747390864907,-67.3929549853421,-67.21003384046014,-67.03101132185907,-66.85227871571202,-66.67330923159264,-66.49188396583001,-66.30487600902555,-66.10752272457924,-65.89871659095768,-65.68976258870755,-65.4972440630449,-65.31510431693364,-65.13823632434914,-64.9584145648711,-64.7733274893852,-64.58553416847238,-64.3880545163644,-64.18943487160709,-64.00756058141732,-63.845195467281,-63.69734420104688,-63.560331561819055,-63.434344294579205,-63.33321207677177,-63.23937048647612,-63.142814165651316,-63.05299258544383,-62.981810151764726,-62.91378172537562,-62.84453691578381,-62.764744817896755,-62.681884038921034,-62.60366245734857,-62.52275902547909,-62.42254443050662,-62.310766936110234,-62.193414506473445,-62.072616411030424,-61.94378912494636,-61.75867350048328,-61.52756926719234,-61.24715956508227,-60.94272587513605,-60.6287441996153,-60.30167539347618,-59.98952302924627,-59.69694787037748,-59.41951996372459,-59.165912994196695,-58.98142908713022,-58.81336760690529,-58.656811112890416,-58.502409785976226,-58.47409214378678,-58.590828688789834,-58.966784876620245,-59.3616492291023,-59.62068312166855,-59.68244544958213,-59.58997098172343,-59.51729274702367,-59.470453953274195,-59.445100487600634,-59.401102634838715,-59.34182660526564,-59.26159963294364,-59.163689683971484,-59.051260278215295,-58.9245977189958,-58.7897766732908,-58.653172455847454,-58.51698729283895,-58.36699551835828,-58.20116216691094,-58.0317393819244,-57.86479139682695,-57.69627392947034,-57.51625426703961,-57.32480326543292,-57.12438586585166,-56.92309254383859,-56.72584368964499,-56.5316625218271,-56.339971628139466,-56.13685892175315,-55.91035772728745,-55.67169095481077,-55.42614764745657,-55.18582521278111,-54.95465787654689,-54.72909449521268,-54.505688916682374,-54.278984976763525,-54.0533334643244,-53.82845756064859,-53.63574259566379,-53.471720671730296,-53.33204483008033,-53.198598019513504,-53.07243849760372,-52.93720894303375,-52.81868678990412,-52.695660683273545,-52.56808715359212,-52.344083794392134,-51.90159371569925,-50.463909588863125,-49.29749790471623,-48.8258859116425,-48.868913539096866,-49.04855202755227,-49.07916374312148,-49.111044398419004,-49.28554942004114,-49.66039032249483,-50.0642649805493,-50.497856627825,-50.95711160563073,-51.47443337641114,-51.933267152790975,-52.35060271390315,-52.76178189166139,-53.176899298730845,-53.59387730208741,-54.00319003319606,-54.395071722165056,-54.76430046146065,-55.10237631488832,-55.42070113858013,-55.72316410231075,-56.00503840175531,-56.271523468118524,-56.52311322446985,-56.76591390984612,-57.00685683716343,-57.25302935440578,-57.50208805607744,-57.76001183499624,-58.03669774164753,-58.33889467609007,-58.66983121290548,-59.0213333449729,-59.39962437611557,-59.79941947112865,-60.2087963418837,-60.632520667016024,-61.059744140486835,-61.49778815291881,-61.93862598043724,-62.35018924302506,-62.738258039541805,-63.11043331514164,-63.47827297389417,-63.82543267993458,-64.15379895910846,-64.48149310465638,-64.80169299643816,-65.12129487941897,-65.44257259753235,-65.76976801092376,-66.09938634625483,-66.43013365170395,-66.76093138704779,-67.09517273476057,-67.43614727044256,-67.78391832178579,-68.13024653693476,-68.47252046642274,-68.82473429819325,-69.1807835652488,-69.5332546036131,-69.86106553240718,-70.18077852083744,-70.49446588603618,-70.79254789145992,-71.08225431874261,-71.36547950167221,-71.64704632775816,-71.95320353758504,-72.2254579762324
-70.89986398084281,-70.8405061808052,-70.68251538076713,-70.43871097968388,-70.16184638431335,-69.84800767751878,-69.51462175170604,-69.18001584436792,-68.87064094317132,-68.60034844269545,-68.35306898555288,-68.12403384849061,-67.9084423205632,-67.70256119305006,-67.50531389406387,-67.32338785029185,-67.14913957385885,-66.97853680077922,-66.81031583527385,-66.63604808446837,-66.45848091997854,-66.27112266612856,-66.07539740205698,-65.87057735738416,-65.66978886609672,-65.47936448881597,-65.29788549206084,-65.12009254350406,-64.9380562267733,-64.75143401278535,-64.56339212743933,-64.36824631263998,-64.16988240006957,-63.986874628908254,-63.81894920594513,-63.66520517247285,-63.519563079762925,-63.38071695795879,-63.25185773897314,-63.14384712249419,-63.03318620596195,-62.93621137380874,-62.864471712743665,-62.79216408816951,-62.72209204268802,-62.656415257824065,-62.58408395235035,-62.52680767223668,-62.46513498975898,-62.38032240327463,-62.28001458565671,-62.16637187110264,-62.04042311820949,-61.90845808158079,-61.735682695768624,-61.50468159651421,-61.23497058804693,-60.94080877589156,-60.63374931872668,-60.32289883503061,-60.018769479517815,-59.724273965068235,-59.437060025640136,-59.192578951859204,-58.99716852608384,-58.84647674545172,-58.72495178797146,-58.61095574646565,-58.47725394496381,-58.436308228319916,-58.58054626253734,-58.97624681436738,-59.38346274573151,-59.59239590847751,-59.624258981226234,-59.52278249003929,-59.46447058574769,-59.41801436490459,-59.37722843775096,-59.31727418246315,-59.246794698560834,-59.16231434385153,-59.059808671067906,-58.946753121972286,-58.8235069532971,-58.70428908341016,-58.58578286391834,-58.4565076743851,-58.3015567035415,-58.133613257565585,-57.96008444063441,-57.78951982357499,-57.61054400013048,-57.426153412573846,-57.233786190902045,-57.0377767391295,-56.847449190732284,-56.66187844670713,-56.47213782229652,-56.26412723840545,-56.04301526808332,-55.80596877135557,-55.5659563723247,-55.32944228536186,-55.09783336340146,-54.87372249465744,-54.6503458323368,-54.42657666379196,-54.197714946279454,-53.97129633863065,-53.757728301155915,-53.596927269317675,-53.44636663966792,-53.30258350987812,-53.16077389879156,-53.016783452648696,-52.884941242669555,-52.78050906544906,-52.62431883381504,-52.237757844476405,-51.55393258659916,-49.94736289409606,-48.887657406252686,-48.856467157384316,-49.20221130953165,-49.3114548382187,-49.306518409420285,-49.33893826212732,-49.68559891049356,-50.14098128263897,-50.64004233816944,-51.08459355941186,-51.5457035881046,-52.0320303372823,-52.464896147723366,-52.88128163517928,-53.28773963286526,-53.71181682237486,-54.13731717369884,-54.554598424544324,-54.95879931055546,-55.32900567784498,-55.66186495099039,-55.98555022011016,-56.284886294065274,-56.56240867336336,-56.82001895435795,-57.067199408972684,-57.30999993085996,-57.55285926284268,-57.80092500046251,-58.047729421935216,-58.303474020025725,-58.582046874245464,-58.89836972944853,-59.23523996782324,-59.595375369797004,-59.98024649025041,-60.37852428172992,-60.791197101455055,-61.208569860555144,-61.631601783570005,-62.059230798871525,-62.492248677055116,-62.912312607282445,-63.2965049178531,-63.67317589004415,-64.04028496139753,-64.3943657849345,-64.73077272646881,-65.06121309702364,-65.38695753802226,-65.71710196931954,-66.03726661982795,-66.36488601713825,-66.69817837155111,-67.0351102155195,-67.37314813455004,-67.71539467001752,-68.06642970852062,-68.41647724570373,-68.76436401285277,-69.11252369284676,-69.47552491762323,-69.84133446504919,-70.2064780576114,-70.53884025376006,-70.86069844672285,-71.17371441968142,-71.48814270646228,-71.78830644653308,-72.08200533847635,-72.37619109763268,-72.66124984547135,-72.92505883091772
-70.83553474469423,-70.76384310528303,-70.6015588447573,-70.34727353631791,-70.0479869241292,-69.72982146453651,-69.39346871698783,-69.06074005149274,-68.76700055003428,-68.49877993353394,-68.26348201898779,-68.040784391231,-67.82962553251832,-67.62413756247592,-67.43681780561235,-67.26035861565205,-67.09422249313958,-66.93200680890294,-66.771305201074,-66.6046051017097,-66.42990817316814,-66.2421803178498,-66.04947193260217,-65.8503808390467,-65.6521573575216,-65.46229968930247,-65.27977665407452,-65.10189021677442,-64.92194509484106,-64.73638889171377,-64.55126299856845,-64.35936436576563,-64.16307230555853,-63.966861390200705,-63.78643385873975,-63.62351345244795,-63.47382837769872,-63.327986050090075,-63.188511239578546,-63.058008871736035,-62.93805811220989,-62.836047457319694,-62.75595125007111,-62.675816444243,-62.60710550474377,-62.54658615956034,-62.50063014557618,-62.4504352039657,-62.39523714506727,-62.32520942294909,-62.232248096525694,-62.12600937664867,-62.00963927015387,-61.87505738208095,-61.71170465273915,-61.49840893471628,-61.23774050281695,-60.94818917939607,-60.652559040724405,-60.35112371730274,-60.04300039465102,-59.74433065824261,-59.4663847805719,-59.23777116123212,-59.04484351728276,-58.89228186035772,-58.78896221835105,-58.695091761305406,-58.61343792935664,-58.477662640468424,-58.4709548088705,-58.61122077321112,-59.015373078269896,-59.36954389364633,-59.561281327131404,-59.55468151684587,-59.46542409699532,-59.39847142365291,-59.350375148632295,-59.292788997440354,-59.22586841714139,-59.150831738629186,-59.070223911641605,-58.968155254159626,-58.86150560284952,-58.76071825423574,-58.655935334527726,-58.53883601046043,-58.40802763501504,-58.2412325646619,-58.066610015259215,-57.891203787514165,-57.71460327983666,-57.533884145624,-57.34959424725638,-57.16021057741378,-56.9732835760786,-56.79165049930189,-56.59838757880998,-56.3915210078074,-56.17059492427595,-55.93939785294218,-55.7048062681321,-55.47087920608778,-55.24163479601875,-55.01662813566291,-54.79323523794034,-54.56761801580187,-54.34293953697954,-54.11576240238587,-53.900469902814905,-53.7041932173652,-53.53398428029344,-53.37286000858914,-53.219613424531275,-53.06951228966712,-52.9226731027875,-52.82232651718165,-52.83176693508477,-52.694994384888595,-51.8452201450913,-50.25134277608049,-49.251672592721235,-49.21686396237907,-49.38908616837797,-49.501192776980176,-49.55497273821662,-49.80323671249434,-50.177713027352326,-50.677801684391,-51.14603867704875,-51.61783404183293,-52.09143661822001,-52.57794427956273,-53.015354880789204,-53.427410878427274,-53.84051157868329,-54.256502777457754,-54.689108344817,-55.11897505926576,-55.52614936383182,-55.896439574534995,-56.22855183443392,-56.541033196485046,-56.837862011294824,-57.10912174541737,-57.362000343381865,-57.61071460504032,-57.854977965968615,-58.10222779036003,-58.349702303186135,-58.59883440975386,-58.8629493113555,-59.15641340525158,-59.47132837446705,-59.81729682696446,-60.18256104837994,-60.56231348603514,-60.96119387892289,-61.37166579091122,-61.789711125593115,-62.21124161176233,-62.639768353249394,-63.067253334305775,-63.478998777087185,-63.86658781423107,-64.24232910314443,-64.61242067206275,-64.97048862431276,-65.3194285789439,-65.65577673197947,-65.99444760155032,-66.33084944869222,-66.6522797010575,-66.97595247970742,-67.31174311938074,-67.6535546602185,-67.99598985815742,-68.34563015214135,-68.69951285536833,-69.05794138614954,-69.41419006291643,-69.77042974329487,-70.13690546830364,-70.5122149698217,-70.88091902523486,-71.22241891834034,-71.54769908319135,-71.86525304057905,-72.18542925171198,-72.50092171093945,-72.805186637128,-73.09550074363213,-73.37058224294739,-73.59277111861002
-70.75725880073526,-70.68397483082256,-70.50876763568039,-70.2304357191486,-69.93408724111484,-69.61330997315642,-69.28391849478541,-68.9678992917842,-68.67014291268306,-68.40681407013784,-68.17267982993275,-67.96041865791234,-67.7551287545375,-67.55947427148052,-67.37128860481272,-67.19947216878019,-67.04238370051387,-66.89073533770171,-66.73681550918944,-66.58020042998808,-66.40718011060463,-66.22402281709346,-66.03011961354676,-65.83257721890422,-65.63408848243188,-65.4425499887303,-65.25869977020932,-65.07968332990217,-64.89959900976028,-64.71639051126017,-64.53596774977933,-64.35119562765033,-64.1583979836452,-63.95444525134074,-63.75475982315723,-63.578292610402634,-63.415204438276206,-63.26292932256199,-63.11690865798731,-62.97514082155137,-62.841134694130915,-62.72918801376437,-62.62981289146067,-62.54250931823975,-62.47601562904089,-62.42593610698195,-62.40055878717342,-62.36577058015174,-62.31183802520509,-62.249426708993184,-62.171500108304535,-62.070553702677714,-61.95824638125801,-61.83493176123365,-61.685308231936276,-61.485535187699895,-61.24419834629337,-60.96433698043235,-60.66984360824811,-60.36929997597689,-60.06364653021378,-59.773856814481285,-59.522312448948306,-59.29466396870272,-59.11203144609949,-58.96838637126493,-58.861483800826505,-58.79315584010389,-58.723211594101805,-58.64613851076082,-58.527670057734255,-58.56292046349812,-58.761623630293926,-59.0887849947583,-59.384086993512106,-59.48946906453101,-59.490904091937125,-59.4081615283933,-59.33939311194982,-59.27305816453918,-59.20844347186061,-59.14065551991436,-59.06886120881188,-58.98851218450855,-58.90124362751272,-58.81378453240619,-58.72619633207729,-58.623623985290585,-58.49823422512096,-58.34084258061344,-58.16773977501581,-57.99369708442627,-57.818430081582164,-57.64051990693295,-57.4593046792,-57.27697985468724,-57.095336128022105,-56.91014746601847,-56.71689818402628,-56.51204505299596,-56.29188803844232,-56.06610096591862,-55.83716349049712,-55.60774741346715,-55.38050273045493,-55.158180072373774,-54.93353321588104,-54.70582111506352,-54.48011238649345,-54.255152689447264,-54.026346601805905,-53.811511006985555,-53.60074443633459,-53.415973583870695,-53.25673115711893,-53.10680006705053,-52.994840704082435,-52.96382404848742,-52.95803295573927,-52.606770764054566,-51.58797520450024,-50.10692552496174,-49.41619422842672,-49.429401639205864,-49.54538078243948,-49.64857318543788,-49.87239189876833,-50.205127318839715,-50.70436196343169,-51.16856395104185,-51.63523489172025,-52.12017440049031,-52.64046732886161,-53.13682542072185,-53.57683217714238,-53.9930261623632,-54.40996857335302,-54.8287524578121,-55.26275899431343,-55.691108346699856,-56.094306748859026,-56.458427477498134,-56.785772955477654,-57.09788544375417,-57.387842046511594,-57.65764422948905,-57.91316287413578,-58.160302737085594,-58.408813954563335,-58.662218038472346,-58.91393724653443,-59.172321154874695,-59.44580935687827,-59.74822258570412,-60.07054245577615,-60.41181446366706,-60.77615443324396,-61.15576349990937,-61.54594482181574,-61.95338782641307,-62.37545667326284,-62.805815358548756,-63.23475531534232,-63.65983087450995,-64.07813519090624,-64.47289343212387,-64.83907619763994,-65.20757229797968,-65.56656131764659,-65.91804687127018,-66.26289769778558,-66.60738189605378,-66.94757467376263,-67.27028302777939,-67.59950951601097,-67.93768678757397,-68.28307073433301,-68.63042735294353,-68.97871988231174,-69.33553316169599,-69.70304507390372,-70.07301652262635,-70.43811402578794,-70.81250699111358,-71.18941873383113,-71.55834182371332,-71.907906146756,-72.23417238539332,-72.55525320375162,-72.88074981584145,-73.20280958603598,-73.51163395251514,-73.80030001379973,-74.04209619820715,-74.24353299295963
-70.68624366612448,-70.60261993956094,-70.42305739758251,-70.14084018925479,-69.83488556977623,-69.51526216530185,-69.19843296847175,-68.88986295133037,-68.59152604441663,-68.32335155727039,-68.08287477471339,-67.87513571656943,-67.68663197176701,-67.49937720228829,-67.31678949348318,-67.14822851696312,-66.998653068437,-66.8558880195916,-66.7160072591243,-66.56424109311129,-66.39287041239619,-66.20648119999106,-66.01020424870903,-65.8107440201778,-65.61265948367884,-65.4185052530836,-65.23351905890624,-65.05300235301954,-64.87480144085669,-64.69420776132327,-64.51402178810818,-64.33272753646213,-64.14096451033602,-63.935247083930804,-63.72721873711278,-63.52812326035327,-63.35301958042564,-63.191415494241696,-63.03488163683115,-62.88236026535779,-62.73922964311072,-62.60135243485517,-62.48960061258652,-62.39437852926357,-62.323706745781635,-62.281704008644176,-62.266927987450266,-62.24616896774722,-62.207895885742474,-62.150422162951855,-62.08232245218481,-62.00115366195129,-61.89577172451154,-61.7761369646059,-61.63966564462193,-61.46981518491949,-61.235735618044146,-60.969160514716314,-60.68018181145774,-60.38394288061798,-60.09283600996805,-59.82781774838397,-59.590353222685245,-59.38293616201388,-59.20461027947758,-59.06790079556889,-58.964975952995886,-58.908270466502245,-58.86138905447781,-58.80908824765939,-58.737629979538646,-58.662213108951576,-58.70541208697259,-58.907060935062134,-59.151944711597615,-59.39402342601346,-59.44628644415773,-59.42336881710351,-59.33927295855051,-59.26745258293995,-59.2031401928639,-59.146837377767625,-59.08349871202406,-59.02092938535139,-58.94833186543421,-58.876231330152734,-58.798142833216836,-58.70680059680083,-58.582653101837664,-58.42964906585942,-58.265601199349405,-58.096285491225544,-57.9219189401267,-57.74107762309202,-57.562153684133385,-57.38378945987462,-57.20504401655403,-57.02081335569379,-56.82867586592437,-56.62077442222141,-56.406741148573744,-56.187114692550324,-55.965415038068095,-55.74387436938623,-55.52150863979203,-55.30388885111664,-55.07602184645316,-54.84156410072938,-54.609532746457084,-54.37485753123992,-54.13597171603857,-53.890726877854384,-53.656449574328114,-53.453066458120745,-53.28203745281564,-53.13961664425662,-53.03638764180313,-52.9921805368299,-52.78987343590471,-51.74867484297445,-50.396472795515265,-49.30562386253694,-49.24527891734413,-49.432233498076656,-49.648928937012954,-49.63204571190563,-50.00732817407617,-50.570858194621,-51.12651339707925,-51.639628777310215,-52.11888318155061,-52.640798568032466,-53.17591467868654,-53.70558367156125,-54.147410391252755,-54.57393411958617,-54.997767756523395,-55.42873852483733,-55.851991234691496,-56.26413471735035,-56.6578316975778,-57.010393665013645,-57.332471005336885,-57.6468326398669,-57.937324269161536,-58.21192291917816,-58.473123502921595,-58.72215800329811,-58.981546267525545,-59.23815669962419,-59.50064529861733,-59.76855521996722,-60.05387676314346,-60.35884011480435,-60.67946450191582,-61.02029424303733,-61.380392901537355,-61.7585151021814,-62.148965463432525,-62.54552252310757,-62.97734908372834,-63.410282587932286,-63.8431699385277,-64.27292614656187,-64.69775241520196,-65.09636510867762,-65.46144335170509,-65.81981522633953,-66.17556075747001,-66.52922780158399,-66.87655376742194,-67.2185675337405,-67.55733068790742,-67.89124193201414,-68.22806754481648,-68.5718591828635,-68.923615849364,-69.27071834331554,-69.61996420965578,-69.97668519472658,-70.35434605538687,-70.73240916436598,-71.11118210839041,-71.50021689341122,-71.88232718419614,-72.24912387259154,-72.59729307474696,-72.91780972688223,-73.23432956737635,-73.56224472603081,-73.88682515973309,-74.1942414360774,-74.46702466666925,-74.69215837840511,-74.87400982908323
-70.6351803324923,-70.5499262585536,-70.35235792269818,-70.07904107475474,-69.75840822692996,-69.43798943118544,-69.12196513306696,-68.81602867260436,-68.51542406642145,-68.24260537032826,-68.00100635331715,-67.80035424415965,-67.61485162313575,-67.44094604729698,-67.26391810078621,-67.1074308615426,-66.96225411128516,-66.83083171666586,-66.69672896881971,-66.55071982547565,-66.37969568636817,-66.18788197349274,-65.98817309707991,-65.78552042563389,-65.58283439885182,-65.38610870776634,-65.19987114888276,-65.02213293486624,-64.84444019203028,-64.66828034340892,-64.48688800228021,-64.30523509296917,-64.11265416579963,-63.90980463851935,-63.69562700594621,-63.49002560537645,-63.29175421753963,-63.11793365853034,-62.95074473428157,-62.78883037625348,-62.630358606444396,-62.479647102040715,-62.340035967564944,-62.23360659173885,-62.16008549815818,-62.111656802838525,-62.10484199717786,-62.0939728270513,-62.070363791403764,-62.028086472399224,-61.97578785474869,-61.90967215870167,-61.8284081664564,-61.70741815935375,-61.567370491103645,-61.41214287634774,-61.20613479364139,-60.94678641285238,-60.67206633330697,-60.396981098252255,-60.128357560671084,-59.887955898966716,-59.67752453277505,-59.48745655300206,-59.32061286439307,-59.179741642600064,-59.105427117474726,-59.05246562573712,-59.006490755395674,-58.96018900346082,-58.91781428655906,-58.8700240444844,-58.82257570637553,-58.87364931907217,-58.994415876268,-59.21843964899091,-59.38044390545052,-59.40454120787804,-59.356001531067434,-59.279781029737,-59.22296302221877,-59.17652846508981,-59.12389884003274,-59.07502521659909,-59.01288042633755,-58.950526813657,-58.87823190931863,-58.79234049851545,-58.67622816890418,-58.52086663422317,-58.35928205348938,-58.199091404004434,-58.02442295622656,-57.84346186545124,-57.66408350979233,-57.4948712415545,-57.317904143854705,-57.12791612990286,-56.932499820785026,-56.726692909387396,-56.51664677715989,-56.30731619377005,-56.095880673205926,-55.88238982502776,-55.67131863910759,-55.45641388830301,-55.22624790695875,-54.986266968884436,-54.7311046486837,-54.4837004777468,-54.22433372947901,-53.96002997732806,-53.71682123007344,-53.50010661602768,-53.308885808073526,-53.171459719223506,-53.09653028766349,-52.93595201148148,-52.414704507922586,-50.85423092693907,-49.14442032827132,-48.94086740874415,-49.179446495098965,-49.52896897905803,-49.532521911426684,-49.58572217236368,-49.942596126762446,-50.848558398899264,-51.55985689769034,-52.120079544589935,-52.64817893572466,-53.16081184218922,-53.71811039950481,-54.24748301361171,-54.722179060252515,-55.16491804002787,-55.604273045248696,-56.03250034378043,-56.43894050318462,-56.83865098883608,-57.21279353863852,-57.55737156759682,-57.879803135060214,-58.194758702921874,-58.49927528074313,-58.781078978684405,-59.04945305844666,-59.308137828522305,-59.567503908724476,-59.832237442888484,-60.10552206348336,-60.37900767109315,-60.66860941775003,-60.978682622468995,-61.296782153648856,-61.63755098241799,-62.00344779213614,-62.381541855862174,-62.76929646775049,-63.17894591070069,-63.605683549260036,-64.03841761855361,-64.4676184019555,-64.88979762741548,-65.31167158332826,-65.71211030919915,-66.08433278637357,-66.44199382566603,-66.79716175641455,-67.14916939003331,-67.49533298182229,-67.83687273980973,-68.17623399262843,-68.51763143942152,-68.86015812425447,-69.21000419387079,-69.56243963619646,-69.91597913918748,-70.27161432342862,-70.64137180231299,-71.02206890105258,-71.40882565508713,-71.80023758420785,-72.19337804975807,-72.57992436725033,-72.94540741980728,-73.29158292597603,-73.61338828037024,-73.91800699621066,-74.23010840987284,-74.54961326380361,-74.84993200091392,-75.1000160289813,-75.3093041592708,-75.46381399618716
-70.55503555017064,-70.439137502543,-70.25809104551467,-69.99697242719495,-69.68409937696593,-69.35786973914901,-69.04627547824443,-68.73564751028589,-68.43987031371645,-68.16820270733888,-67.93324254332438,-67.72769610252466,-67.54450926644975,-67.37085054056496,-67.21107449248919,-67.06456809147575,-66.93207569913645,-66.80846057052658,-66.67665052517059,-66.53159233298793,-66.36365072452689,-66.16775365464682,-65.96252722847973,-65.75399787872902,-65.54766725989766,-65.34839629412745,-65.1591836580335,-64.97967099483184,-64.80711584391693,-64.63636267644188,-64.45831924265181,-64.27321847473839,-64.08037122144849,-63.87297336573719,-63.66063301081238,-63.44911351275926,-63.24609362972966,-63.05007155720005,-62.87374221209258,-62.70172863819066,-62.52671177889403,-62.359752408914645,-62.206093130602774,-62.07407573157579,-61.982806328541656,-61.94357489289089,-61.93114213807285,-61.92647358163757,-61.90466625210834,-61.86941311415437,-61.85124159980228,-61.810828764186155,-61.74318972985907,-61.6405921024684,-61.5042680463921,-61.342937431689876,-61.14642429659919,-60.90651486417801,-60.645672796193736,-60.398712141516626,-60.16176312193665,-59.943183433342426,-59.756763460732564,-59.588399564532246,-59.43506067712269,-59.31735982210163,-59.2584339326731,-59.209156998390384,-59.15851282001968,-59.10489851970391,-59.06956203326354,-59.04046784984159,-59.02055890175765,-58.976209044302514,-59.01840974591146,-59.12270375540711,-59.2685188475597,-59.36263569654942,-59.371615336411224,-59.32979952681437,-59.28222801012237,-59.246069659703245,-59.197045600956834,-59.14820331552626,-59.09353723679746,-59.033668007376335,-58.969963009852655,-58.88286615726665,-58.76306356245983,-58.60472794380816,-58.44968023290194,-58.29568400762922,-58.13169152682577,-57.95418732274707,-57.78453026919867,-57.61208129018377,-57.432184857070105,-57.23740341489842,-57.040167708787436,-56.83541107514488,-56.63124318587618,-56.42961177207008,-56.22816405288301,-56.026340108958074,-55.82156405061668,-55.61059966116445,-55.381711280612095,-55.13343224245128,-54.86879962875024,-54.59205219179342,-54.3119851907292,-54.04348749653367,-53.786703197738014,-53.55078009482976,-53.345182156091624,-53.207776938589895,-53.21692790740775,-53.17892894520567,-52.54145461008715,-50.97852674070165,-49.20939343056778,-49.03080070736448,-49.28068535783314,-49.41803189713336,-49.52610693556723,-49.702259191372434,-50.40363205053903,-51.25641106989261,-52.05524943083623,-52.659142697580634,-53.21512905217547,-53.74773288765591,-54.293372122168904,-54.811906634738484,-55.29934147335963,-55.7606608384038,-56.200846200009224,-56.61856205489608,-57.011321323532144,-57.38567896120418,-57.74900436733995,-58.091128440793135,-58.420538595004736,-58.745476997732624,-59.06219307431604,-59.35781034851225,-59.63307695916642,-59.901157875991416,-60.16977308690659,-60.44509324666748,-60.724268167083174,-61.00698421223869,-61.30520572492827,-61.618913417855545,-61.93726626048034,-62.276630105016245,-62.64244336291871,-63.02141479969444,-63.41361046661316,-63.825320204766086,-64.25207301715346,-64.6828946068838,-65.10570546359789,-65.52247734179663,-65.93454773148093,-66.33024971678435,-66.70897495762755,-67.06403966636401,-67.41988252017602,-67.77339326076597,-68.11961556471903,-68.46195183371348,-68.8059126983026,-69.1512655290418,-69.49972716198627,-69.8523420458228,-70.20964570353595,-70.56929538148424,-70.93839125266233,-71.31449733550672,-71.7010059007642,-72.09394315878833,-72.4894392453061,-72.88697833923766,-73.27094162478096,-73.6390704616976,-73.98764127054288,-74.29866457497154,-74.59591615225187,-74.89466720240407,-75.19856175210546,-75.47683738219106,-75.71684989184052,-75.9004925911618,-76.03619997042603
-70.45565883325429,-70.32250078390759,-70.13976503096136,-69.87972420023762,-69.58755151226721,-69.27185999375511,-68.95928700919393,-68.65538359596275,-68.3685803658669,-68.10344061118197,-67.87154038109381,-67.66012334885923,-67.47313181540727,-67.30904666101188,-67.15954257366083,-67.02479085033896,-66.90196005361176,-66.77963751568961,-66.65247702369953,-66.50339649994888,-66.32965940821016,-66.13764386555972,-65.92863804988512,-65.7167433859683,-65.50901010927745,-65.30455017734107,-65.11064268027631,-64.93195878975112,-64.761821011277,-64.59554659214955,-64.42047886477621,-64.2368935846551,-64.03801775469356,-63.829931312447854,-63.61907040977529,-63.408715149457485,-63.202088945221334,-63.001708244123854,-62.80752271389403,-62.623704966180654,-62.441988885543836,-62.25270409965839,-62.076030408533924,-61.92340431443896,-61.81713138150226,-61.77001882174275,-61.75475445869807,-61.74922873662041,-61.73199829564305,-61.70116382473054,-61.698929372018625,-61.686298213245095,-61.630697126010205,-61.543489744629014,-61.42100269944283,-61.25881897310388,-61.070985597503636,-60.85235209234509,-60.61728102659248,-60.390264201543836,-60.175336024617145,-59.991987994391465,-59.81822949166735,-59.671887629381175,-59.54179911719349,-59.441165987879074,-59.396203553457056,-59.36419014309755,-59.31174128739133,-59.25236819880321,-59.198470230691846,-59.174005760962174,-59.17023358787381,-59.138880963524706,-59.11370173340971,-59.147012150166596,-59.2431757225573,-59.346274656450056,-59.39249697794712,-59.38892203571556,-59.36201433758097,-59.32982059272342,-59.287188403900245,-59.24131091178609,-59.18210844748339,-59.121881590220696,-59.05788873794097,-58.97394165205595,-58.857601193507215,-58.70512209418004,-58.57021000128499,-58.421452428355856,-58.25157628538622,-58.07817356905899,-57.90738634592573,-57.73535756378792,-57.545608595869055,-57.34824947619546,-57.14861791931847,-56.94575219289001,-56.74833885500311,-56.55568873132714,-56.36208931024147,-56.17190868831855,-55.97535266594468,-55.76518476950294,-55.53607258873118,-55.28629508404447,-55.01173313441468,-54.71331098718696,-54.408299713509024,-54.11698244728365,-53.84994347747586,-53.599401041007454,-53.41971037748913,-53.329801009525866,-53.480865399059766,-53.44829367247361,-53.008449317802935,-50.78218810046255,-49.546569080731516,-49.15545485464323,-49.23600323943835,-49.3814682168621,-49.53454242985697,-50.14219045491029,-51.01047929994482,-51.935073029868576,-52.606782521139,-53.21214528932916,-53.80159703635011,-54.36825730062688,-54.90998264489794,-55.412441025789455,-55.883134779293854,-56.3378712833027,-56.7754580593459,-57.1824056275019,-57.55276387450511,-57.913985097393805,-58.270599526565924,-58.61303915130614,-58.95711352624414,-59.29919131937108,-59.62845989303358,-59.93020514890593,-60.21893940443,-60.4985496940003,-60.78081567445893,-61.06590042308605,-61.35778718287904,-61.653462166273364,-61.95819992753807,-62.272947001813996,-62.59819204756698,-62.938665849168046,-63.2965481238854,-63.67619939152284,-64.07565773443433,-64.48535112636388,-64.91200810008964,-65.34480302832308,-65.76638308861101,-66.17603778999546,-66.57968706076558,-66.9681837700825,-67.33595633866335,-67.69044471951037,-68.05206040440041,-68.40361435787233,-68.75077489836626,-69.0939513087013,-69.44036770027641,-69.79150345752588,-70.14452057926837,-70.50140099956603,-70.86389228206998,-71.23603685803032,-71.61227648387748,-71.99288530935473,-72.38308764780064,-72.7767852113434,-73.17240772661597,-73.56500143213052,-73.94666976421115,-74.31556512885845,-74.66050512303822,-74.9711212346794,-75.26296797646194,-75.5563689103195,-75.83493488647933,-76.09052449450667,-76.30487435466131,-76.47753205131391,-76.61459811377593
-70.36118312385273,-70.21294632066744,-70.0290201423013,-69.78038723803878,-69.48451609249904,-69.17179011389692,-68.869364956267,-68.58010991362974,-68.30920426305566,-68.04955813488655,-67.80533449750195,-67.59499008755927,-67.4109253829606,-67.25093429698582,-67.11211675792302,-66.98651190080417,-66.86644514164699,-66.74464505845857,-66.61592335932713,-66.46944688632811,-66.2942431785907,-66.09532591558114,-65.88847612035893,-65.67692469329906,-65.46521983903516,-65.25749008117816,-65.0625056601944,-64.87983992874281,-64.7158308942713,-64.54895085702903,-64.37585367374773,-64.18631277185546,-63.98781919395424,-63.78155853278813,-63.57077011226092,-63.364615643087866,-63.1597120103211,-62.95745033095789,-62.76082943094553,-62.5658217870123,-62.37149742909848,-62.16955594726814,-61.95878089745581,-61.78092006379757,-61.66275224583018,-61.59410619192035,-61.57154790890993,-61.56059468806481,-61.53139395957719,-61.516944937911106,-61.51478981817909,-61.50659406733056,-61.47369411604646,-61.40887912913506,-61.29088977287793,-61.14704966121612,-60.98353863803392,-60.79321371337812,-60.5890398346627,-60.37476854751587,-60.19823338117078,-60.03596775482481,-59.88068525162503,-59.75138939419609,-59.63865780850594,-59.55058022739442,-59.528068131961994,-59.50284807268959,-59.46037717630641,-59.38795724869979,-59.31787470334362,-59.272434000946866,-59.26131134718949,-59.256189814406184,-59.24473994275213,-59.24921117109404,-59.29402970561411,-59.40235827207228,-59.46396202199469,-59.471970654328565,-59.4456191914381,-59.41819770911299,-59.38557230192655,-59.339141763847294,-59.27729255707875,-59.21125602820152,-59.152533475215684,-59.073021682926594,-58.971865689334344,-58.85023713447776,-58.71269577875658,-58.56175501339151,-58.38356195639246,-58.20607485262689,-58.03132518656576,-57.850047101550246,-57.65605145230431,-57.45940884586579,-57.26288104688053,-57.063938430936474,-56.871836410442654,-56.68614133363297,-56.5037533993973,-56.318707916731796,-56.130991380239394,-55.92556209462119,-55.697203820693375,-55.44826905467206,-55.15587045821249,-54.83200731034765,-54.50854948277174,-54.190779574982514,-53.90474809942406,-53.664860081524125,-53.52114149894317,-53.664231160552774,-53.59876260756229,-53.22299907303992,-51.5589884462086,-49.92059115878929,-48.83153783525802,-48.90400671176861,-49.12799985079488,-49.269353468682716,-49.58832895721028,-50.55835309461951,-51.49200801185536,-52.3453552651814,-53.083875228865836,-53.72131282500624,-54.34235339751803,-54.97868178615816,-55.50481625594755,-55.986745104014645,-56.43861333686601,-56.89032148559218,-57.324478923815214,-57.727691265560765,-58.08498616718872,-58.43557165477425,-58.787698058170434,-59.1463322282131,-59.49896588725598,-59.847611497277086,-60.18612813981929,-60.50356390617225,-60.800407381866364,-61.10146671838207,-61.39315449404703,-61.68738481795289,-61.99227088105835,-62.30169866824516,-62.612275465997335,-62.932753266378384,-63.265067892205536,-63.608502158501466,-63.97014090725579,-64.35061679994296,-64.75615025612187,-65.17257923806365,-65.59354466616159,-66.0188092409493,-66.43664825563496,-66.84284241033474,-67.24032675327959,-67.62270831280833,-67.98474230513818,-68.3413519458982,-68.69588082830178,-69.04780130029721,-69.39124423824609,-69.73321252819264,-70.08048030794136,-70.43558373562081,-70.79314218462717,-71.15542751208007,-71.52915946571513,-71.90852027098293,-72.28879522461077,-72.67143855228278,-73.06043625374438,-73.45294398579999,-73.84421386676041,-74.23036621838381,-74.6093369815369,-74.97685725375877,-75.32135877854193,-75.63386208509861,-75.92255726089208,-76.19958552854344,-76.46016454461441,-76.69090230551495,-76.88870911368059,-77.05529818062928,-77.1969247280304
-70.28169689984422,-70.1145923340302,-69.91686954211285,-69.67840434745656,-69.38724622950956,-69.07884220763123,-68.78590455720337,-68.51498278848469,-68.25931082534169,-68.0040606747504,-67.7555362815361,-67.54318659406965,-67.36441992280596,-67.20787754709878,-67.07305522658639,-66.94817722565465,-66.82570157544366,-66.70291495061645,-66.5762446958279,-66.42298606376855,-66.24887538765687,-66.04852992996275,-65.84252178101394,-65.63326315268523,-65.42200231653868,-65.21476673470396,-65.01685327240801,-64.84092564280877,-64.67172573422478,-64.5010715640509,-64.317799859185,-64.12754796077287,-63.9282536769264,-63.72214376862394,-63.51479675490007,-63.309083963823284,-63.10835027179424,-62.91290005103238,-62.7159284295513,-62.520466945686124,-62.32032044550609,-62.0981220719201,-61.8662217523372,-61.64551266184806,-61.50629552505203,-61.43121341364443,-61.38715775297546,-61.343518114467685,-61.306326722379865,-61.2793214833455,-61.28083224530134,-61.28002848430488,-61.259709117387416,-61.21176711570355,-61.11760861380602,-60.98643384909995,-60.84784705506482,-60.71287652683931,-60.54291336668618,-60.3738463605832,-60.22147883762749,-60.07573409705388,-59.949665348588695,-59.83827693519743,-59.73993516289807,-59.674435636934106,-59.653530398122115,-59.62950318646931,-59.582147478054964,-59.51216357357562,-59.43590933494512,-59.37588140976066,-59.340666750846815,-59.341906128845444,-59.35193740288625,-59.36397051463311,-59.408790873945634,-59.493499313144305,-59.575016455602025,-59.57542988328031,-59.544236524444436,-59.512795968206845,-59.48206160815003,-59.445104350391276,-59.391110789598265,-59.33957684663413,-59.27899965459555,-59.2052933151352,-59.112663241292616,-59.00774786989891,-58.868923812820995,-58.699884455577305,-58.51695618364815,-58.33691404298924,-58.15803169413154,-57.97051735607141,-57.77715143566664,-57.58106641339803,-57.38955387483537,-57.19789833646621,-57.009031997282136,-56.83026159812444,-56.65745654428656,-56.48199927753949,-56.293581882519305,-56.09409084199168,-55.87431687390185,-55.605991543382935,-55.29267888485922,-54.94670772108665,-54.5998576403765,-54.269608575591405,-53.97188401504942,-53.794224978945564,-53.90023919549195,-53.80231197955172,-53.07176998810506,-51.262251876802175,-49.75955815350119,-48.613266680592304,-48.41807299787641,-48.65210581752108,-48.88998657960661,-48.964806515831874,-49.54650960538852,-50.562481920914024,-51.763441892922486,-52.65092856553886,-53.44166449921089,-54.14882306908294,-54.8219382816348,-55.50087015669916,-56.05743232881804,-56.53140131348442,-56.98788735829585,-57.43489912886443,-57.85694422790954,-58.24783390831179,-58.6018404490291,-58.95216967139192,-59.316212748610816,-59.681443113256776,-60.04481022720506,-60.398850007546535,-60.74657133239826,-61.07531970725407,-61.39283189712073,-61.704429286421174,-62.00855545778754,-62.313220030487386,-62.62333179016133,-62.94208096679385,-63.26300712166167,-63.59322202192037,-63.93358008060296,-64.28603305868442,-64.65971134869746,-65.04872105734732,-65.46163639953355,-65.88594324127214,-66.30497724541405,-66.7132797859607,-67.12033548836281,-67.52421469217144,-67.9183245844763,-68.29273709335513,-68.64880288608263,-69.0008300181037,-69.35224675109264,-69.69953272786171,-70.0417143727094,-70.38193006825784,-70.73016737458332,-71.08711989388217,-71.44859950253104,-71.8199678076265,-72.19793572500109,-72.57981622052043,-72.96312855324038,-73.34704259281682,-73.73563000052033,-74.12404421915443,-74.50817540799268,-74.88770915412279,-75.25383449137422,-75.6145974403457,-75.96415238181427,-76.27281722047552,-76.5593206844162,-76.82858052141374,-77.07928457934747,-77.29526751189928,-77.48726259041777,-77.65814277645934,-77.796901507734
-70.16645880571852,-69.9925063847019,-69.79659974175289,-69.55553182707739,-69.28633868616745,-69.00596814754469,-68.72508670898078,-68.46197522780005,-68.2047232466279,-67.95049669795623,-67.7129704108553,-67.5097434145047,-67.328330990928,-67.17590443465166,-67.03737612057849,-66.90895332653666,-66.78691091576098,-66.66402736420196,-66.53623282293877,-66.3824807933348,-66.19668507555772,-65.99473443821968,-65.78928727173879,-65.58348616448332,-65.37967177738031,-65.176526067551,-64.9872597105633,-64.80529621733059,-64.62803475384894,-64.44424477593,-64.2526247125143,-64.05726231546001,-63.857334226354084,-63.65038878382259,-63.44871109708579,-63.24732288139081,-63.05231261133693,-62.86374614671593,-62.67193367897461,-62.47598016223777,-62.265371090031984,-62.04275412913799,-61.79529012213355,-61.57213882420171,-61.383999859253876,-61.26628302861658,-61.19334228033907,-61.12243882906026,-61.062069123554835,-61.03050285910654,-61.02626190912061,-61.03134724771737,-61.027371266528654,-60.99528194506115,-60.916358562788,-60.79846390661585,-60.68434347650094,-60.5730545973549,-60.46341037697851,-60.335106779535764,-60.214701004530895,-60.10989302416879,-60.007635951188874,-59.909185745485246,-59.82862619863445,-59.77478975681599,-59.75473827981177,-59.734676081608484,-59.68598967694136,-59.622428624256465,-59.55198105176841,-59.47613375501473,-59.43088771286071,-59.41812434392543,-59.434145299333856,-59.454117917972525,-59.4988134787742,-59.57896955037741,-59.66029848544839,-59.66997792369736,-59.64623101764829,-59.616433294875115,-59.58937195742009,-59.55739816398944,-59.52129866787499,-59.470732225370284,-59.4129551303627,-59.339348369693965,-59.251431394276224,-59.149589674632594,-59.008011231566336,-58.83673814627211,-58.65495494117759,-58.47622435730336,-58.2902167602997,-58.097499457985464,-57.89933382180601,-57.704165532888226,-57.514968439580265,-57.3366696843221,-57.15661363325825,-56.97747107481015,-56.81762656406824,-56.64800131307468,-56.45769660714379,-56.255618691276766,-56.029189930189645,-55.752007035318655,-55.420784693879014,-55.06237107895233,-54.703340608957596,-54.364144703931025,-54.084127144008434,-53.94181623644738,-53.898999222611224,-53.566608103504166,-51.319716860921325,-49.109754931796,-47.86975966387363,-47.895637223950516,-48.25007089793414,-48.5520246934184,-48.64788472478325,-48.73565147582138,-49.19313812516024,-50.72295486353215,-52.079382873959645,-53.023908445099735,-53.8221799055516,-54.55719573842539,-55.311658809883255,-56.01821289610657,-56.612607914368645,-57.081728549070974,-57.541886951889666,-57.973840517734885,-58.38105380566013,-58.761786563177424,-59.113448104876696,-59.47753645466423,-59.8488791203613,-60.22221860283314,-60.58580606635648,-60.948166622473835,-61.30570786217969,-61.6479338872073,-61.98019414748967,-62.304290689948445,-62.61523400796861,-62.9336521208287,-63.25338531471142,-63.57667447256454,-63.9100449010953,-64.25061975167121,-64.6016701972319,-64.96898892466294,-65.35695217091464,-65.7604786676992,-66.18917439013812,-66.61617079982452,-67.03182710102013,-67.42806326313992,-67.82180175823919,-68.214552053118,-68.6034128699464,-68.96417386290678,-69.31493535261875,-69.6657385626911,-70.01406232973005,-70.35814394459052,-70.6990443012797,-71.04088801346317,-71.38935955722373,-71.74684862336818,-72.11522367621637,-72.48942169632296,-72.86763499414123,-73.24982206572925,-73.63400604366589,-74.01995873489008,-74.40791756536862,-74.7921158160838,-75.16842932551323,-75.53829104815554,-75.88847147313038,-76.23482062350664,-76.58071262709068,-76.88637353328691,-77.17827304920222,-77.4489901902116,-77.69421945629968,-77.90846178121484,-78.10588374040873,-78.27854059535994,-78.4036762580405
-70.03537158195584,-69.85771852250947,-69.65761512098256,-69.43785704175961,-69.18919570282861,-68.93658211927524,-68.68265383566353,-68.41820291792808,-68.16243511788967,-67.91603052613208,-67.68880966771073,-67.49183889396969,-67.31441467873897,-67.15168374375017,-67.008432733832,-66.8746649841813,-66.74900668766091,-66.62468614630689,-66.49321710804917,-66.33012055959651,-66.14023270830803,-65.93752602748047,-65.7329427320381,-65.53251330684685,-65.33462614768906,-65.14328863882957,-64.95591673254566,-64.76868975849472,-64.58359135917718,-64.38653299979738,-64.18130691595411,-63.98038570267016,-63.77650475827113,-63.572495742991,-63.37077358697933,-63.180181725309424,-62.9972754710799,-62.81544273343985,-62.63114709541021,-62.43442819816755,-62.22891586897082,-62.004723399116415,-61.76203095497283,-61.51475519253624,-61.29833913969751,-61.12582662276385,-61.00439926491249,-60.912096038941144,-60.83549468635022,-60.788397576661396,-60.77458137720738,-60.778762594594134,-60.78332546278252,-60.768429498039175,-60.705258898085546,-60.607742967642,-60.49337626267447,-60.41263825875002,-60.339079928539775,-60.260243883919586,-60.175782464352935,-60.105602679614584,-60.04447770645981,-59.96592081271907,-59.90016991279556,-59.85141645367032,-59.83298286117988,-59.80679011952592,-59.75759933171756,-59.69660503507681,-59.62505894509292,-59.53950914538096,-59.48756586658964,-59.478316964141214,-59.49792757469396,-59.5187804904224,-59.54453722004573,-59.63387660581831,-59.70741600292943,-59.74928563604459,-59.74292167007072,-59.72154482222696,-59.70016558374036,-59.67626310138456,-59.64423784211029,-59.60322340818255,-59.54039402654412,-59.46587626278868,-59.38227117453304,-59.27784346043613,-59.135525793419504,-58.97830100160003,-58.80291349624402,-58.61775335205691,-58.42374003080944,-58.22064064150293,-58.01664081299948,-57.8212365437838,-57.63319244823476,-57.46366457328237,-57.2862512715073,-57.10854875725364,-56.964586875939936,-56.787688165467365,-56.6040852302182,-56.40241003398114,-56.153739558029834,-55.8739284805984,-55.543081386225474,-55.18252361894035,-54.816564794690066,-54.4810858800057,-54.24433363062106,-54.06839771276486,-53.76324772192994,-52.7420339270657,-49.82270577077546,-47.4274586269574,-47.17672360389484,-47.6820678398536,-48.113294560114085,-48.29345459001692,-48.422562664816326,-48.71264239012186,-49.36329915528607,-51.2217326312749,-52.51599028149293,-53.45604319625926,-54.227109968032664,-55.024579862638824,-55.8293923265428,-56.6148505352855,-57.16132007033475,-57.63873126459494,-58.09105711882515,-58.50695187755603,-58.90410873067358,-59.28545160959807,-59.65006655237181,-60.015401438598296,-60.38685394210379,-60.7626881832083,-61.12766518158399,-61.492168401645486,-61.861370553852886,-62.21641616480756,-62.55402456319854,-62.88439100724455,-63.21567146563287,-63.54450255436778,-63.876623355265856,-64.21466687581027,-64.55800276007638,-64.909613169271,-65.27807371472667,-65.65702016333388,-66.05251145147535,-66.47769048596625,-66.9170983608428,-67.3513213387093,-67.77172567474837,-68.15287928563099,-68.53028815675722,-68.90571290559664,-69.2748371783619,-69.63495137819257,-69.98086542077289,-70.3405640996711,-70.69050414629189,-71.02852852598606,-71.36643671898811,-71.70432773301536,-72.05248113595492,-72.41425621002924,-72.78610779459369,-73.16270612763385,-73.54162700292366,-73.92160187680288,-74.30669783079921,-74.6937353254385,-75.07910096523847,-75.45761624844792,-75.83043471746419,-76.19269847633147,-76.53523536802732,-76.87304972350196,-77.20112684865265,-77.50637668464685,-77.79415755558246,-78.05944458773138,-78.30743942872338,-78.52491635914765,-78.71680673337934,-78.880415109008,-79.01469964977059
-69.90092639092809,-69.71995442397943,-69.52360285178212,-69.31004168328889,-69.09215562609121,-68.87199149037146,-68.6345885413882,-68.38552356384069,-68.13562800362509,-67.90349733160517,-67.68628474334562,-67.4898412893007,-67.31189924828814,-67.14432839503542,-66.9842072090043,-66.8450117388367,-66.7130146132577,-66.58429112376069,-66.44245827284182,-66.27801615638879,-66.08527426823645,-65.88181380648166,-65.67676061770258,-65.47763764623616,-65.28780962711195,-65.10109828325778,-64.91864933147244,-64.72647367734194,-64.53162478591742,-64.32583760276488,-64.10833316290893,-63.89817798080712,-63.69186698065894,-63.487824637007165,-63.2933725656532,-63.11372758506697,-62.94377598749915,-62.775361029959534,-62.59402872245096,-62.400204023696524,-62.19798832916638,-61.97414382861055,-61.733076072285016,-61.48608433472728,-61.24213834500931,-61.03441418535467,-60.85959301141474,-60.720314163727224,-60.626224163199296,-60.56129718214779,-60.531240594502435,-60.5320490110565,-60.53881078684816,-60.53168394311628,-60.497488233573435,-60.418944565941416,-60.333697757308485,-60.270069228249724,-60.224344582801116,-60.1778111115522,-60.13981539672798,-60.10373286580175,-60.0579787113855,-60.01047214675301,-59.95431768306022,-59.912144395842255,-59.88252809692719,-59.84410289886232,-59.79336370735406,-59.72793166764379,-59.65016432482621,-59.566263741555254,-59.51117014949362,-59.52442832044405,-59.55516899074711,-59.58493637832534,-59.62767785552182,-59.69588372326647,-59.77413277086993,-59.826731646669266,-59.8341955098726,-59.820052355866025,-59.803107516668206,-59.788351670843035,-59.75784598692488,-59.714467427336714,-59.6605556942272,-59.5923952046195,-59.51202175855762,-59.4083770778354,-59.2785647178918,-59.12327145828474,-58.948902075424634,-58.75568466448366,-58.55270437786718,-58.342446452710135,-58.13102196331006,-57.92426867875992,-57.72079410258739,-57.51790389851037,-57.342696771003354,-57.19568409679411,-57.061347430440115,-56.907822181583704,-56.727840637237385,-56.5316513254934,-56.28613606733886,-55.99210364372088,-55.65582915605381,-55.302123248072434,-54.92900760475276,-54.563257122102456,-54.313555233561345,-54.369865759069086,-54.42708923639829,-53.27526417291206,-50.27848448393632,-47.70857125593503,-47.211973889350546,-47.46783775366248,-47.81581851304445,-47.97713234249922,-48.00850887073693,-48.10787186839315,-49.015013469514344,-51.093656664402815,-52.74821299212056,-53.79049148290009,-54.68793294477544,-55.50961905725552,-56.33846711175483,-57.10524817139712,-57.68169403318311,-58.16322576954399,-58.61029053371237,-59.03056712167577,-59.427433150870606,-59.811399822007836,-60.18673212994973,-60.55911003978771,-60.93632639920819,-61.31580604409717,-61.685159482652764,-62.05405853811111,-62.420044081276984,-62.77864815842617,-63.120120845946246,-63.46013170635811,-63.807360330368994,-64.15528895129668,-64.5035972056738,-64.85465182430202,-65.20951088200049,-65.57798740556522,-65.95576494210334,-66.33874449282823,-66.7558130419491,-67.19838437934415,-67.64580706271865,-68.0822306815829,-68.4903735849339,-68.87020365705818,-69.23577134553015,-69.59702587342596,-69.9580678947853,-70.31083526326321,-70.67132385088013,-71.0268113322204,-71.37542938843914,-71.70765547939561,-72.04108038545252,-72.37646176562254,-72.72233298917209,-73.08527465778522,-73.45972518457654,-73.8396374714992,-74.21950935949492,-74.6003572823073,-74.98288532248641,-75.36642593661239,-75.7477694632702,-76.12046532622519,-76.4843407481444,-76.8404433972584,-77.17923271507524,-77.50339137972767,-77.81864620127158,-78.12369110427704,-78.41093400966133,-78.67780745472498,-78.92664124541837,-79.1428889055438,-79.32530057171296,-79.48564482975547,-79.62545466460557
